ply
format ascii 1.0
comment Generated by the CGAL library
element vertex 1333
property double x
property double y
property double z
property float intensity
end_header
1.53891 0.269042 -0.349165 54.5636 
1.53923 0.263709 -0.347862 53.771 
1.53959 0.258611 -0.347883 53.771 
1.53993 0.25378 -0.347903 53.2777 
1.54028 0.248948 -0.347921 54.2736 
1.54062 0.244115 -0.347939 53.771 
1.54098 0.239011 -0.347957 53.2777 
1.54132 0.234175 -0.347974 53.771 
1.54168 0.229068 -0.347991 54.7856 
1.542 0.224498 -0.348006 54.2736 
1.54236 0.219389 -0.348021 54.2736 
1.54271 0.214548 -0.348035 54.2736 
1.54305 0.209706 -0.348049 53.771 
1.54336 0.204558 -0.346737 55.0087 
1.54375 0.19975 -0.348075 53.771 
1.54406 0.194631 -0.346762 54.4946 
1.5444 0.1898 -0.346772 55.0087 
1.54474 0.184969 -0.346783 55.0087 
1.5451 0.179868 -0.346793 54.4946 
1.54544 0.175036 -0.346802 53.99 
1.54578 0.170201 -0.34681 54.4946 
1.54612 0.165367 -0.346818 54.4946 
1.54647 0.160533 -0.346825 55.5326 
1.54676 0.155547 -0.345506 54.7167 
1.54717 0.150593 -0.346837 53.99 
1.54751 0.145757 -0.346842 53.99 
1.54785 0.14092 -0.346847 53.99 
1.54819 0.136084 -0.346851 54.4946 
1.54853 0.131247 -0.346854 55.0087 
1.54887 0.12641 -0.346856 53.99 
1.54921 0.121572 -0.346858 53.99 
1.5495 0.116707 -0.345535 54.7167 
1.5499 0.111897 -0.34686 54.4946 
1.55026 0.10679 -0.34686 55.0087 
1.55054 0.101972 -0.345535 54.2101 
1.55088 0.097149 -0.345533 54.7167 
1.55122 0.092327 -0.345532 54.2101 
1.55156 0.0875051 -0.345529 54.7167 
1.5519 0.0826835 -0.345526 54.7167 
1.5523 0.0777656 -0.346847 54.4946 
1.55266 0.0726612 -0.346842 53.99 
1.553 0.0678244 -0.346837 55.0087 
1.55334 0.0629888 -0.346831 54.4946 
1.55367 0.0584226 -0.346825 54.4946 
1.55394 0.0537592 -0.345494 55.2329 
1.55428 0.0489403 -0.345486 54.7167 
1.55469 0.0439196 -0.346802 53.99 
1.55501 0.0393547 -0.346794 53.99 
1.55535 0.0345225 -0.346784 53.4947 
1.55569 0.0296911 -0.346774 53.99 
1.55603 0.0248604 -0.346764 53.99 
1.55637 0.0200298 -0.346752 53.4947 
1.55673 0.0149323 -0.346739 55.0087 
1.55707 0.0101043 -0.346727 55.0087 
1.55739 0.00554572 -0.346714 53.99 
1.55771 0.000987232 -0.346701 54.4946 
1.55811 -0.00392232 -0.348012 53.771 
1.55847 -0.00903053 -0.347996 54.2736 
1.55881 -0.0138687 -0.34798 54.7856 
1.55915 -0.0187056 -0.347963 54.2736 
1.55949 -0.0235413 -0.347946 54.2736 
1.55981 -0.0281072 -0.347929 54.7856 
1.56015 -0.0329403 -0.347911 54.7856 
1.56058 -0.0382308 -0.349216 54.0536 
1.56092 -0.0430763 -0.349196 53.5531 
1.56126 -0.0479202 -0.349176 53.5531 
1.56162 -0.0530316 -0.349154 54.0536 
1.56196 -0.0578723 -0.349132 54.5636 
1.5623 -0.0627113 -0.34911 54.5636 
1.56264 -0.0675487 -0.349087 54.5636 
1.56298 -0.0723843 -0.349064 53.5531 
1.51045 0.65325 -0.316548 51.3564 
1.5108 0.648324 -0.316619 51.8649 
1.51122 0.641814 -0.315543 51.5603 
1.51165 0.635055 -0.314471 52.2778 
1.512 0.630143 -0.314539 52.2778 
1.51235 0.625225 -0.314607 52.2778 
1.51276 0.618781 -0.313528 51.9712 
1.51316 0.612363 -0.312448 52.1782 
1.51351 0.60746 -0.312513 52.1782 
1.51392 0.601074 -0.311431 51.8776 
1.51432 0.594714 -0.310348 52.0847 
1.51472 0.588378 -0.309263 52.2928 
1.51507 0.583499 -0.309326 52.8054 
1.51547 0.577198 -0.30824 51.9971 
1.51581 0.572325 -0.308301 54.0769 
1.51623 0.565788 -0.307216 54.8418 
1.51658 0.560921 -0.307276 55.4014 
1.51697 0.55469 -0.306186 55.6234 
1.51732 0.549829 -0.306244 55.6234 
1.51768 0.544692 -0.306305 55.6234 
1.51803 0.539821 -0.306361 56.1969 
1.51837 0.534946 -0.306418 55.6234 
1.51872 0.530068 -0.306473 55.6234 
1.51906 0.525185 -0.306528 56.1969 
1.51945 0.519043 -0.305432 56.4223 
1.5198 0.514166 -0.305486 58.223 
1.52014 0.509286 -0.305538 59.4887 
1.52049 0.504402 -0.305591 58.8491 
1.52084 0.499513 -0.305642 58.8491 
1.52119 0.494621 -0.305693 57.01 
1.52153 0.489725 -0.305743 56.4223 
1.52191 0.483676 -0.304642 56.6488 
1.52226 0.478788 -0.30469 56.6488 
1.52264 0.472776 -0.303587 56.2961 
1.52298 0.467895 -0.303635 55.7275 
1.52338 0.461651 -0.302532 57.1053 
1.52372 0.456778 -0.302578 55.9517 
1.52409 0.45163 -0.302626 56.5226 
1.52443 0.44675 -0.30267 58.3076 
1.52478 0.441866 -0.302714 56.5226 
1.52513 0.43698 -0.302758 59.5615 
1.52547 0.43209 -0.3028 59.5615 
1.52582 0.427197 -0.302842 58.9278 
1.52619 0.421334 -0.301731 59.1652 
1.5265 0.418354 -0.304077 58.6917 
1.52688 0.412227 -0.302967 56.5226 
1.52726 0.405479 -0.3007 52.1864 
1.52798 0.393938 -0.29847 24.2634 
1.52861 0.388531 -0.304311 16.2265 
1.52896 0.383596 -0.304347 14.5185 
1.52932 0.377828 -0.303229 14.425 
1.52966 0.375073 -0.306728 14.1056 
1.53003 0.368501 -0.304454 14.3672 
1.53038 0.363555 -0.304488 15.1567 
1.53073 0.358607 -0.304521 14.3672 
1.53108 0.353657 -0.304553 14.8307 
1.53143 0.348704 -0.304585 14.6729 
1.5318 0.343473 -0.304618 15.8535 
1.53215 0.338515 -0.304648 17.4589 
1.5325 0.332863 -0.303523 21.6376 
1.53285 0.327239 -0.302397 17.1652 
1.53322 0.32137 -0.301272 43.6245 
1.53356 0.315158 -0.29899 55.7338 
1.5339 0.309636 -0.297862 59.4934 
1.53425 0.305371 -0.299043 61.8584 
1.5346 0.300475 -0.299068 64.7025 
1.53495 0.295577 -0.299093 69.4953 
1.53531 0.290404 -0.299118 65.4549 
1.53566 0.285502 -0.299142 61.1861 
1.53601 0.280598 -0.299165 59.2539 
1.53634 0.27517 -0.298031 58.2668 
1.53669 0.270279 -0.298053 56.5188 
1.53703 0.265385 -0.298073 57.6722 
1.53738 0.259743 -0.296939 56.1856 
1.53773 0.254862 -0.296958 56.7475 
1.53807 0.249978 -0.296977 56.7475 
1.53844 0.245524 -0.298151 56.5188 
1.5388 0.240351 -0.29817 55.9592 
1.53913 0.235051 -0.29703 58.5025 
1.53949 0.229891 -0.297048 56.7475 
1.53982 0.225273 -0.297062 56.1856 
1.54018 0.220111 -0.297078 57.3207 
1.54053 0.21522 -0.297092 56.7475 
1.54087 0.210328 -0.297106 56.1856 
1.54122 0.205434 -0.297119 56.1856 
1.54159 0.200268 -0.297132 57.3207 
1.54193 0.195373 -0.297143 57.3207 
1.54225 0.190217 -0.295998 57.5529 
1.54259 0.185336 -0.296008 56.9773 
1.54296 0.180182 -0.296018 56.9773 
1.5433 0.175299 -0.296027 57.5529 
1.54364 0.170415 -0.296036 56.9773 
1.54399 0.16553 -0.296043 56.4132 
1.54433 0.160645 -0.29605 58.1401 
1.54464 0.15561 -0.2949 56.0866 
1.545 0.150468 -0.294906 56.0866 
1.54535 0.145597 -0.294911 56.6419 
1.54569 0.140726 -0.294916 57.2083 
1.54604 0.135854 -0.29492 56.6419 
1.54638 0.130982 -0.294923 56.0866 
1.54677 0.126167 -0.296082 56.4132 
1.54711 0.121279 -0.296084 56.9773 
1.54746 0.116391 -0.296085 57.5529 
1.5478 0.111503 -0.296086 56.9773 
1.54817 0.106343 -0.296086 57.5529 
1.54846 0.101476 -0.294928 56.0866 
1.5488 0.0966038 -0.294927 57.2083 
1.54915 0.0917316 -0.294925 56.6419 
1.54949 0.0868587 -0.294923 57.2083 
1.54983 0.0819869 -0.294919 57.2083 
1.55018 0.0771153 -0.294915 56.6419 
1.5506 0.0718591 -0.296067 55.8601 
1.55094 0.0669729 -0.296062 56.9773 
1.55134 0.0619415 -0.297213 56.7475 
1.55161 0.0574725 -0.29605 55.8601 
1.55195 0.0525876 -0.296043 58.1401 
1.5523 0.0477025 -0.296035 56.4132 
1.55264 0.0428188 -0.296027 56.9773 
1.55297 0.0382072 -0.296018 56.9773 
1.55331 0.033324 -0.296009 56.4132 
1.55366 0.0284423 -0.295999 56.9773 
1.554 0.0235614 -0.295988 56.9773 
1.55441 0.0184001 -0.297132 57.3207 
1.55477 0.0132334 -0.29712 59.1119 
1.55505 0.00865198 -0.29595 57.5529 
1.55537 0.00404602 -0.295938 57.5529 
1.5557 -0.000559561 -0.295924 56.9773 
1.5561 -0.00552046 -0.297067 56.1856 
1.55646 -0.0106817 -0.29705 55.6348 
1.5568 -0.0155701 -0.297034 57.3207 
1.55715 -0.0204572 -0.297018 56.1856 
1.55749 -0.0253431 -0.297 56.7475 
1.55781 -0.0299563 -0.296983 56.7475 
1.55816 -0.0348396 -0.296965 56.7475 
1.5585 -0.0397214 -0.296946 57.3207 
1.55885 -0.0446018 -0.296926 56.1856 
1.55919 -0.0494806 -0.296905 56.1856 
1.55955 -0.0546288 -0.296883 55.6348 
1.55989 -0.0595044 -0.296861 56.7475 
1.56024 -0.0643783 -0.296839 56.7475 
1.50795 0.654488 -0.258898 46.4531 
1.50838 0.647943 -0.257995 45.0432 
1.50873 0.643012 -0.258065 45.8266 
1.5091 0.637801 -0.258139 46.2286 
1.50952 0.6313 -0.257232 46.8231 
1.50994 0.624824 -0.256325 46.192 
1.51036 0.618371 -0.255417 43.01 
1.51077 0.611944 -0.254508 46.1597 
1.51112 0.60704 -0.254574 47.8082 
1.51153 0.600647 -0.253663 45.9479 
1.51188 0.595748 -0.253727 43.354 
1.51229 0.589389 -0.252814 47.3455 
1.51264 0.584496 -0.252876 46.5292 
1.51305 0.578172 -0.251962 47.9556 
1.51339 0.573285 -0.252023 45.1582 
1.51376 0.56812 -0.252087 47.9556 
1.51417 0.561842 -0.251169 49.0152 
1.51457 0.55559 -0.250251 48.7724 
1.51491 0.550713 -0.250309 48.7724 
1.51528 0.545561 -0.25037 48.3407 
1.51568 0.539356 -0.249449 48.109 
1.51603 0.53448 -0.249505 48.9681 
1.51637 0.529602 -0.24956 48.9681 
1.51672 0.524719 -0.249615 48.9681 
1.51706 0.519832 -0.249669 49.8584 
1.51746 0.513695 -0.248744 50.0587 
1.51781 0.508815 -0.248797 53.4608 
1.51815 0.50393 -0.248849 53.9849 
1.5185 0.499042 -0.2489 53.4608 
1.51885 0.494151 -0.248951 52.4425 
1.51919 0.489254 -0.249001 51.4622 
1.51958 0.4832 -0.248071 52.6533 
1.51993 0.478312 -0.24812 52.1566 
1.52031 0.472295 -0.247187 51.3968 
1.52062 0.468524 -0.248215 51.1907 
1.52106 0.461165 -0.246304 48.4628 
1.52137 0.457371 -0.24733 37.5058 
1.52215 0.445218 -0.245461 20.5724 
1.52237 0.444481 -0.249429 17.2077 
1.52275 0.438532 -0.248491 15.5298 
1.52295 0.438624 -0.253441 14.4122 
1.52328 0.434613 -0.254465 14.0557 
1.52363 0.429596 -0.254507 14.6668 
1.52399 0.424576 -0.254549 13.7689 
1.52434 0.420214 -0.255574 13.1762 
1.52469 0.415172 -0.255614 13.1762 
1.52505 0.410127 -0.255654 12.679 
1.52541 0.40508 -0.255693 12.7998 
1.52577 0.400029 -0.255732 13.0483 
1.52613 0.394975 -0.25577 13.8554 
1.52648 0.389919 -0.255807 14.2976 
1.52684 0.38486 -0.255843 14.2976 
1.52724 0.378699 -0.254898 13.7689 
1.52759 0.373649 -0.254934 13.1005 
1.52795 0.368597 -0.254968 14.0557 
1.52831 0.363542 -0.255002 14.5091 
1.52868 0.357728 -0.254051 14.1119 
1.52901 0.354168 -0.25605 17.6839 
1.52941 0.347357 -0.254117 16.1279 
1.52979 0.340887 -0.252181 16.654 
1.53017 0.333781 -0.249261 21.2638 
1.53053 0.327445 -0.247323 34.8326 
1.53092 0.320231 -0.244401 30.0053 
1.53127 0.314678 -0.243445 48.4086 
1.53162 0.309787 -0.243471 53.4321 
1.53196 0.304893 -0.243498 57.2102 
1.53231 0.299997 -0.243523 61.5631 
1.53266 0.2951 -0.243548 63.6383 
1.53302 0.289929 -0.243573 59.619 
1.53337 0.285028 -0.243596 56.0773 
1.53372 0.280125 -0.243619 52.9328 
1.53406 0.27522 -0.243641 50.5697 
1.53441 0.270314 -0.243663 49.6825 
1.53475 0.264913 -0.242699 50.3251 
1.53512 0.259747 -0.24272 49.4499 
1.53546 0.254852 -0.24274 50.3251 
1.53581 0.249955 -0.242758 50.3251 
1.53615 0.245057 -0.242777 49.4499 
1.53652 0.239885 -0.242795 50.7744 
1.53685 0.234584 -0.241827 49.6503 
1.53722 0.229426 -0.241844 50.5291 
1.53754 0.22481 -0.241859 50.9802 
1.53791 0.219649 -0.241874 50.0858 
1.53825 0.214759 -0.241889 50.5291 
1.5386 0.209867 -0.241902 50.5291 
1.53893 0.204669 -0.24093 51.187 
1.53929 0.19952 -0.240943 50.734 
1.53963 0.194642 -0.240954 50.734 
1.53998 0.189762 -0.240965 50.734 
1.54032 0.184881 -0.240975 50.289 
1.54071 0.179957 -0.241971 50.9802 
1.54106 0.175059 -0.24198 49.6503 
1.5414 0.170161 -0.241988 49.6503 
1.54172 0.165082 -0.241011 49.8517 
1.54207 0.160198 -0.241018 49.8517 
1.54241 0.155313 -0.241024 49.8517 
1.54277 0.150157 -0.24103 52.1177 
1.54312 0.145272 -0.241035 50.734 
1.54346 0.140387 -0.24104 50.289 
1.54381 0.135501 -0.241043 51.6482 
1.54415 0.130615 -0.241046 50.289 
1.5445 0.125729 -0.241049 50.734 
1.5448 0.120802 -0.240065 50.4932 
1.54519 0.115956 -0.241052 49.8517 
1.54553 0.111069 -0.241053 50.289 
1.54589 0.105911 -0.241053 50.734 
1.54624 0.101024 -0.241052 50.289 
1.54658 0.0961379 -0.241051 50.734 
1.54693 0.0912517 -0.241049 50.289 
1.54723 0.0864345 -0.24006 50.4932 
1.54762 0.081479 -0.241043 50.734 
1.54796 0.0765934 -0.241039 50.734 
1.54833 0.0714365 -0.241034 50.734 
1.54867 0.0665517 -0.241029 50.289 
1.54901 0.0616672 -0.241023 50.289 
1.54934 0.0570541 -0.241017 51.187 
1.54968 0.0521706 -0.241009 51.187 
1.55003 0.0472876 -0.241002 51.6482 
1.55037 0.0424045 -0.240993 50.734 
1.5507 0.0377943 -0.240985 50.734 
1.55104 0.0329133 -0.240975 50.734 
1.55138 0.0280322 -0.240965 50.734 
1.55173 0.0231528 -0.240954 51.187 
1.55207 0.0182742 -0.240942 50.289 
1.55243 0.0131252 -0.240929 51.187 
1.55278 0.00824852 -0.240916 51.187 
1.5531 0.00364308 -0.240904 50.734 
1.55342 -0.000960888 -0.24089 50.734 
1.55375 -0.00556406 -0.240876 50.289 
1.55411 -0.0107076 -0.24086 50.289 
1.55445 -0.0155792 -0.240844 49.8517 
1.5548 -0.0204496 -0.240828 51.187 
1.55514 -0.0253187 -0.24081 49.8517 
1.55553 -0.0303531 -0.241778 50.0858 
1.55588 -0.035235 -0.241759 50.0858 
1.55622 -0.0401155 -0.24174 50.5291 
1.55656 -0.0449945 -0.24172 50.0858 
1.55691 -0.049872 -0.2417 50.5291 
1.55727 -0.0550188 -0.241678 49.6503 
1.55761 -0.059893 -0.241656 50.0858 
1.55796 -0.0647655 -0.241633 50.0858 
1.50619 0.64365 -0.198339 56.1222 
1.50654 0.638753 -0.198409 55.5773 
1.50698 0.631999 -0.197679 56.35 
1.50741 0.625542 -0.196943 56.0296 
1.50775 0.62066 -0.197011 56.0296 
1.50818 0.614237 -0.196274 55.7165 
1.5086 0.607839 -0.195536 55.4105 
1.50901 0.601464 -0.194796 55.6363 
1.50943 0.595115 -0.194056 56.4003 
1.50985 0.588791 -0.193315 55.0428 
1.51019 0.583953 -0.193378 56.6305 
1.5106 0.577664 -0.192634 57.414 
1.51095 0.572831 -0.192696 56.3204 
1.51129 0.567994 -0.192756 57.414 
1.51172 0.561483 -0.192014 58.7903 
1.51206 0.556651 -0.192073 59.3782 
1.5124 0.551815 -0.192131 59.978 
1.51275 0.546975 -0.192189 58.7903 
1.51317 0.540521 -0.191443 59.6213 
1.51351 0.535687 -0.191499 59.031 
1.51386 0.530848 -0.191555 58.4522 
1.5142 0.526006 -0.19161 58.4522 
1.5146 0.519879 -0.190857 60.4702 
1.51495 0.515043 -0.190911 59.8655 
1.51534 0.508954 -0.190156 60.111 
1.51569 0.504125 -0.190208 57.7991 
1.51608 0.498072 -0.189452 61.5895 
1.51637 0.494456 -0.190311 62.6156 
1.51672 0.489616 -0.190361 63.9479 
1.51706 0.484772 -0.190411 61.9701 
1.51745 0.478764 -0.189651 62.8727 
1.51775 0.475073 -0.190508 63.2748 
1.51814 0.469089 -0.189747 63.5345 
1.51848 0.464245 -0.189794 62.8727 
1.51884 0.459129 -0.189843 62.2245 
1.51919 0.454279 -0.189888 62.8727 
1.51959 0.448088 -0.189127 60.0056 
1.51994 0.443245 -0.189171 61.8426 
1.52028 0.4384 -0.189214 61.8426 
1.52062 0.433551 -0.189257 62.4801 
1.52097 0.428699 -0.189299 63.1309 
1.52131 0.423843 -0.189341 64.4742 
1.52169 0.41801 -0.188572 64.7393 
1.52203 0.413164 -0.188612 62.0968 
1.5224 0.408045 -0.188654 62.0968 
1.52274 0.403193 -0.188693 60.8549 
1.52312 0.397424 -0.187921 60.5003 
1.52346 0.392581 -0.187958 61.7226 
1.5238 0.387735 -0.187995 61.7226 
1.52417 0.38202 -0.187221 63.2547 
1.52452 0.377184 -0.187256 63.9136 
1.52486 0.372345 -0.187291 64.5864 
1.52522 0.367235 -0.187327 65.2735 
1.52554 0.363197 -0.188172 67.1487 
1.52588 0.358336 -0.188205 65.7047 
1.52621 0.354247 -0.189049 65.4354 
1.52655 0.349364 -0.189081 66.8735 
1.52688 0.345224 -0.189924 66.5997 
1.52726 0.339322 -0.189144 66.1466 
1.52761 0.334434 -0.189174 66.1466 
1.52797 0.328846 -0.188391 66.4189 
1.52832 0.323968 -0.18842 65.7047 
1.52868 0.318817 -0.188449 66.4189 
1.52904 0.313284 -0.187664 64.5864 
1.52938 0.308415 -0.187691 63.9136 
1.52973 0.303545 -0.187717 63.9136 
1.53007 0.298672 -0.187742 66.6925 
1.53042 0.293209 -0.186954 65.5426 
1.53079 0.288079 -0.186979 64.1771 
1.53113 0.283215 -0.187002 63.5155 
1.53147 0.278892 -0.187837 65.9753 
1.53182 0.273485 -0.187047 66.9674 
1.53216 0.269127 -0.187881 67.4253 
1.53251 0.264242 -0.187901 66.6925 
1.53287 0.258605 -0.18711 66.9674 
1.53322 0.253733 -0.187129 67.7033 
1.53356 0.248859 -0.187147 68.4556 
1.5339 0.243984 -0.187166 69.2247 
1.53427 0.239252 -0.187997 68.9405 
1.53462 0.234359 -0.188014 67.4253 
1.53498 0.229192 -0.188031 68.1745 
1.5353 0.224199 -0.187232 68.4556 
1.53567 0.219046 -0.187248 69.2247 
1.536 0.213826 -0.186448 65.813 
1.53635 0.208958 -0.186462 66.5207 
1.53669 0.204088 -0.186475 65.813 
1.53704 0.198658 -0.185674 65.3892 
1.5374 0.194076 -0.186499 65.1203 
1.53772 0.188946 -0.185696 64.7081 
1.53807 0.184089 -0.185706 64.7081 
1.53843 0.178961 -0.185716 64.041 
1.53877 0.174102 -0.185725 65.3892 
1.5391 0.169047 -0.184919 65.6595 
1.53946 0.164383 -0.185741 64.041 
1.5398 0.159522 -0.185748 63.3875 
1.54014 0.154661 -0.185754 64.7081 
1.54051 0.14953 -0.18576 64.041 
1.54085 0.144667 -0.185765 65.3892 
1.54119 0.139805 -0.18577 64.7081 
1.54154 0.134943 -0.185773 66.0849 
1.54188 0.13008 -0.185776 66.0849 
1.54219 0.125163 -0.184965 64.9756 
1.54253 0.120314 -0.184967 63.6496 
1.54288 0.115467 -0.184968 61.1535 
1.54322 0.110619 -0.184968 56.706 
1.54354 0.10551 -0.184154 48.9333 
1.54392 0.100654 -0.184968 41.0372 
1.54426 0.0958059 -0.184966 33.9003 
1.5446 0.0909585 -0.184964 51.9805 
1.54495 0.0861113 -0.184961 58.8458 
1.54533 0.0811782 -0.185772 62.1198 
1.54563 0.0764167 -0.184954 63.0066 
1.54599 0.0713015 -0.184949 61.759 
1.54633 0.0664547 -0.184944 61.759 
1.54667 0.061609 -0.184938 61.759 
1.547 0.0570325 -0.184932 60.5598 
1.54734 0.0521878 -0.184925 59.9775 
1.54768 0.0473437 -0.184917 63.0066 
1.54802 0.0425002 -0.184909 59.9775 
1.54834 0.0379258 -0.1849 61.759 
1.54868 0.0330836 -0.184891 62.3766 
1.54902 0.0282421 -0.184881 60.5598 
1.54931 0.0236723 -0.184056 62.6346 
1.54971 0.0185608 -0.184858 60.5598 
1.55007 0.0134528 -0.184845 62.3766 
1.55041 0.00861484 -0.184832 61.759 
1.55073 0.00404685 -0.18482 61.1535 
1.55111 -0.000869531 -0.18562 62.7472 
1.55137 -0.00508764 -0.184793 63.0066 
1.55173 -0.0101903 -0.184777 60.5598 
1.55213 -0.0154181 -0.185574 59.7305 
1.55247 -0.0202653 -0.185557 60.3105 
1.55275 -0.0246851 -0.184727 61.1535 
1.55307 -0.029246 -0.18471 61.759 
1.55348 -0.0345298 -0.185505 60.3105 
1.55382 -0.0393717 -0.185486 60.3105 
1.55416 -0.0442121 -0.185466 62.7472 
1.5545 -0.0490509 -0.185446 60.3105 
1.55486 -0.054157 -0.185423 61.5047 
1.5552 -0.0589926 -0.185402 60.9017 
1.55554 -0.0638265 -0.185379 60.9017 
1.50384 0.643508 -0.141914 41.5872 
1.50429 0.636738 -0.141356 42.8249 
1.50464 0.631848 -0.141425 41.7407 
1.50507 0.625383 -0.140861 42.9832 
1.5055 0.618943 -0.140297 42.5893 
1.50585 0.614067 -0.140363 42.0502 
1.50628 0.607661 -0.139797 42.2063 
1.5067 0.601281 -0.139229 41.8336 
1.50713 0.594925 -0.138661 42.5209 
1.50747 0.590074 -0.138724 41.9894 
1.50789 0.583753 -0.138154 42.146 
1.50831 0.577458 -0.137582 42.3035 
1.50866 0.572622 -0.137643 42.839 
1.50902 0.567513 -0.137707 42.839 
1.50944 0.561264 -0.137133 42.9994 
1.50985 0.555041 -0.136558 43.714 
1.5102 0.550218 -0.136616 45.4626 
1.51063 0.543763 -0.136043 44.4481 
1.51104 0.537602 -0.135465 44.0434 
1.51138 0.532795 -0.13552 44.0434 
1.51172 0.527985 -0.135576 44.6154 
1.51213 0.521871 -0.134995 43.6499 
1.5124 0.518351 -0.135684 41.3902 
1.51275 0.513527 -0.135738 40.8975 
1.51315 0.507447 -0.135155 40.5687 
1.51349 0.502632 -0.135207 41.0517 
1.51383 0.497812 -0.135258 41.5462 
1.51418 0.492988 -0.135309 44.2095 
1.51452 0.488161 -0.135359 46.5992 
1.51486 0.48333 -0.135408 46.5992 
1.51526 0.477333 -0.134821 47.4159 
1.5156 0.472509 -0.134869 45.5442 
1.516 0.46655 -0.134279 45.7166 
1.51636 0.461467 -0.134328 45.7166 
1.5167 0.456649 -0.134374 45.1228 
1.51706 0.451558 -0.134422 45.7166 
1.5174 0.446732 -0.134467 45.1228 
1.51775 0.441903 -0.134511 45.1228 
1.51809 0.43707 -0.134554 46.3261 
1.51848 0.431211 -0.133959 47.1301 
1.51882 0.426387 -0.134001 46.5017 
1.51916 0.421561 -0.134042 46.5017 
1.5195 0.41673 -0.134083 47.1301 
1.51986 0.411629 -0.134125 46.5017 
1.52021 0.406792 -0.134164 46.5017 
1.52055 0.401954 -0.134203 46.5017 
1.52089 0.397112 -0.134241 47.1301 
1.52127 0.391367 -0.13364 47.309 
1.52162 0.386534 -0.133677 47.309 
1.52196 0.381699 -0.133713 47.309 
1.5223 0.376862 -0.133748 46.6782 
1.52266 0.371752 -0.133785 46.6782 
1.52301 0.366909 -0.133819 46.6782 
1.52338 0.361256 -0.133213 46.8558 
1.52372 0.356423 -0.133246 47.4889 
1.52406 0.351588 -0.133278 46.8558 
1.52441 0.346751 -0.13331 47.4889 
1.52477 0.341642 -0.133342 46.8558 
1.52511 0.3368 -0.133372 47.4889 
1.52545 0.331954 -0.133402 46.8558 
1.5258 0.327108 -0.133431 47.4889 
1.52618 0.321307 -0.13282 47.6698 
1.52652 0.316472 -0.132848 47.0343 
1.52686 0.311634 -0.132875 48.3229 
1.52722 0.306158 -0.13226 47.8518 
1.52757 0.301332 -0.132286 47.2137 
1.52792 0.2959 -0.13167 46.7706 
1.5283 0.290229 -0.131055 46.9497 
1.52865 0.284856 -0.130437 45.9213 
1.529 0.279512 -0.129819 41.329 
1.52969 0.269437 -0.129221 22.5591 
1.53001 0.265187 -0.129883 19.1257 
1.53038 0.259649 -0.129263 19.1993 
1.53071 0.255363 -0.129924 17.9781 
1.53105 0.250118 -0.129302 16.7105 
1.53139 0.245799 -0.129961 17.6256 
1.53175 0.240318 -0.129338 16.7105 
1.53208 0.235548 -0.129355 14.5543 
1.53244 0.230512 -0.129372 15.0394 
1.53278 0.22574 -0.129388 17.3532 
1.53311 0.220967 -0.129403 18.7993 
1.53345 0.216192 -0.129418 15.2943 
1.53379 0.211416 -0.129431 16.4066 
1.53413 0.20664 -0.129445 14.0995 
1.53448 0.201597 -0.129458 14.3233 
1.53482 0.196818 -0.12947 15.0394 
1.53516 0.192039 -0.129481 14.3233 
1.53549 0.187258 -0.129491 16.1137 
1.53585 0.182211 -0.129502 17.3532 
1.53619 0.17743 -0.129511 15.558 
1.53651 0.172437 -0.128878 15.0974 
1.53685 0.16767 -0.128886 15.892 
1.53719 0.162901 -0.128893 15.618 
1.53754 0.158296 -0.129542 14.0995 
1.53789 0.153245 -0.129549 14.0995 
1.53823 0.14846 -0.129554 13.4681 
1.53857 0.143675 -0.129559 13.4681 
1.53891 0.138889 -0.129564 12.5328 
1.53925 0.134102 -0.129567 13.6722 
1.53956 0.129247 -0.128928 13.7249 
1.53992 0.124529 -0.129573 15.558 
1.54026 0.119743 -0.129574 34.3758 
1.54062 0.114977 -0.130218 43.3208 
1.54099 0.110182 -0.130861 45.9213 
1.54137 0.105086 -0.131503 46.9497 
1.54171 0.100252 -0.131502 46.9497 
1.54205 0.0954185 -0.131501 48.2186 
1.5424 0.0905843 -0.131499 46.34 
1.54274 0.085751 -0.131496 46.34 
1.54308 0.0809179 -0.131493 45.1668 
1.54344 0.0758163 -0.131489 45.7458 
1.54378 0.0709839 -0.131484 46.34 
1.54412 0.0661518 -0.131479 46.34 
1.54442 0.0614704 -0.130831 45.9213 
1.54474 0.0569225 -0.130824 45.34 
1.54508 0.0521074 -0.130817 45.9213 
1.54542 0.047292 -0.13081 45.9213 
1.54576 0.0424781 -0.130801 45.9213 
1.54608 0.0379324 -0.130793 46.5177 
1.54642 0.033119 -0.130783 45.9213 
1.5468 0.0280486 -0.131415 44.6022 
1.5471 0.0234959 -0.130762 45.9213 
1.5475 0.0181277 -0.131392 45.7458 
1.54784 0.0133027 -0.13138 45.1668 
1.54818 0.00847794 -0.131367 46.34 
1.5485 0.00392313 -0.131354 45.7458 
1.54882 -0.000631336 -0.131341 46.34 
1.54914 -0.00518472 -0.131327 45.1668 
1.5495 -0.0102726 -0.131311 45.7458 
1.54984 -0.0150915 -0.131295 45.1668 
1.55023 -0.0203225 -0.13192 46.1632 
1.55057 -0.0251545 -0.131903 45.5714 
1.5509 -0.0297168 -0.131886 46.1632 
1.55124 -0.0345462 -0.131868 44.9945 
1.55163 -0.0398488 -0.13249 45.9874 
1.55191 -0.0442006 -0.131829 45.5714 
1.55234 -0.0498002 -0.132449 44.8232 
1.55268 -0.054639 -0.132428 45.9874 
1.55302 -0.0594763 -0.132406 44.8232 
1.50144 0.644343 -0.0860443 41.2769 
1.50181 0.639159 -0.0861181 40.7544 
1.50225 0.632656 -0.0857282 41.4585 
1.5026 0.627748 -0.0857966 41.4585 
1.50295 0.622836 -0.0858644 41.9969 
1.50339 0.616376 -0.0854717 41.114 
1.50374 0.611468 -0.085538 40.6001 
1.50426 0.603532 -0.0846832 41.4778 
1.5047 0.597147 -0.0842874 40.6325 
1.50513 0.590787 -0.0838906 41.8456 
1.50556 0.584452 -0.0834927 42.57 
1.50599 0.578143 -0.0830938 41.1753 
1.50633 0.573296 -0.0831551 42.2177 
1.5067 0.568175 -0.0832191 41.6899 
1.50704 0.563319 -0.083279 42.2177 
1.50747 0.557066 -0.0828766 42.9489 
1.50781 0.552216 -0.0829351 43.5067 
1.50817 0.547091 -0.0829961 42.9489 
1.50852 0.542232 -0.0830533 43.5067 
1.50894 0.536039 -0.0826474 43.7002 
1.50928 0.531186 -0.0827032 43.7002 
1.5097 0.525029 -0.0822955 44.4724 
1.51004 0.520183 -0.0823498 43.3321 
1.51039 0.515333 -0.0824034 43.3321 
1.51073 0.510479 -0.0824565 43.8949 
1.51115 0.504382 -0.0820454 44.0906 
1.51149 0.499535 -0.082097 45.2663 
1.51183 0.494685 -0.0821479 43.5253 
1.51218 0.489831 -0.0821982 44.6707 
1.51259 0.483793 -0.0817838 44.2874 
1.51293 0.478947 -0.0818327 44.8702 
1.51321 0.475245 -0.0823454 44.0906 
1.51362 0.469243 -0.0819286 43.7196 
1.51398 0.464116 -0.0819781 44.2874 
1.51439 0.458152 -0.0815596 43.9151 
1.51475 0.453033 -0.0816077 43.9151 
1.51515 0.44711 -0.0811874 44.6844 
1.51549 0.442269 -0.0812315 44.6844 
1.51584 0.437425 -0.0812749 44.1116 
1.51618 0.432578 -0.0813177 44.1116 
1.51647 0.428736 -0.0818256 44.4854 
1.51687 0.422873 -0.0814014 44.6844 
1.51721 0.418016 -0.0814423 44.1116 
1.51758 0.412886 -0.0814848 44.6844 
1.51792 0.408023 -0.0815244 44.1116 
1.51826 0.403156 -0.0815633 45.2724 
1.51865 0.397371 -0.0811352 44.3092 
1.519 0.392515 -0.0811728 44.3092 
1.51939 0.38677 -0.080743 44.5079 
1.51977 0.381053 -0.0803124 44.7078 
1.52011 0.376219 -0.0803478 44.7078 
1.52048 0.371113 -0.0803845 45.2884 
1.52082 0.366274 -0.0804186 45.2884 
1.52116 0.361433 -0.0804521 45.2884 
1.52147 0.357381 -0.0809523 45.0859 
1.52185 0.351741 -0.0805171 45.2884 
1.52216 0.347653 -0.0810162 45.0859 
1.52252 0.342516 -0.081049 45.6792 
1.52286 0.337646 -0.0810793 44.5079 
1.52324 0.332061 -0.0806412 45.2884 
1.52358 0.327202 -0.0806702 45.2884 
1.52395 0.322072 -0.0807001 45.2884 
1.52432 0.316541 -0.0802597 47.3363 
1.52466 0.311692 -0.0802867 47.9847 
1.525 0.306841 -0.080313 49.3364 
1.5254 0.300747 -0.0794019 47.7635 
1.52574 0.295923 -0.0794268 47.7635 
1.52612 0.29024 -0.0789839 47.3393 
1.52648 0.284855 -0.0785388 44.0306 
1.52712 0.27634 -0.0795212 13.3883 
1.52746 0.271506 -0.0795429 22.0906 
1.52782 0.266161 -0.0790951 20.173 
1.5282 0.260578 -0.0786476 19.383 
1.52855 0.255293 -0.0781982 19.0564 
1.52889 0.250501 -0.0782171 17.5618 
1.52923 0.245707 -0.0782354 16.5861 
1.5296 0.240214 -0.0777849 18.7438 
1.52994 0.235432 -0.0778018 17.302 
1.53029 0.230384 -0.077819 17.302 
1.53064 0.225218 -0.0773653 17.7212 
1.53098 0.220081 -0.0769109 18.1576 
1.53132 0.215326 -0.0769252 18.9142 
1.53165 0.210907 -0.0774084 17.3804 
1.53199 0.206134 -0.0774215 17.3804 
1.53234 0.201095 -0.0774347 17.0525 
1.53268 0.196321 -0.0774465 16.4324 
1.53302 0.191819 -0.0779274 15.7843 
1.53335 0.187028 -0.077938 17.6413 
1.53371 0.181969 -0.0779485 17.302 
1.53405 0.1774 -0.0784276 16.8991 
1.5344 0.172801 -0.0789061 13.3078 
1.53474 0.168169 -0.0793841 34.4703 
1.53509 0.163327 -0.0793915 42.2672 
1.53544 0.158647 -0.0798683 47.1267 
1.5358 0.153519 -0.0798749 45.9026 
1.53614 0.148659 -0.0798805 46.5066 
1.53648 0.1438 -0.0798854 47.1267 
1.53683 0.13894 -0.0798897 48.4178 
1.53717 0.13408 -0.0798934 48.4178 
1.53751 0.129219 -0.0798964 48.4178 
1.53784 0.124306 -0.0794288 48.6362 
1.53818 0.119461 -0.0794306 49.3117 
1.53852 0.114616 -0.0794317 49.3117 
1.53887 0.10977 -0.0794322 49.3117 
1.53923 0.104656 -0.079432 50.0063 
1.53957 0.0998099 -0.0794312 49.3117 
1.53989 0.0950073 -0.0789597 50.2321 
1.54025 0.0901199 -0.0794276 47.979 
1.54059 0.0852751 -0.0794249 46.1097 
1.54093 0.0804298 -0.0794215 46.1097 
1.54132 0.0752103 -0.0798872 45.9026 
1.54166 0.0703507 -0.0798825 45.9026 
1.54201 0.0654915 -0.0798772 45.3141 
1.54235 0.0606328 -0.0798712 45.3141 
1.54267 0.0560438 -0.079865 45.3141 
1.54301 0.051186 -0.0798578 45.3141 
1.54336 0.0463288 -0.07985 44.7405 
1.5437 0.0414713 -0.0798415 45.3141 
1.54402 0.0368854 -0.0798329 44.1813 
1.54436 0.0320301 -0.0798232 44.7405 
1.54471 0.0271748 -0.0798128 45.9026 
1.54505 0.022321 -0.0798019 45.3141 
1.54541 0.0171983 -0.0797896 45.3141 
1.54575 0.0123463 -0.0797773 44.7405 
1.54609 0.00749532 -0.0797644 44.7405 
1.54641 0.0029142 -0.0797516 45.3141 
1.54674 -0.00166552 -0.0797382 45.3141 
1.54706 -0.00624439 -0.0797243 45.9026 
1.54742 -0.0113608 -0.079708 45.3141 
1.54776 -0.0162066 -0.079692 45.9026 
1.5481 -0.0210513 -0.0796753 45.3141 
1.54849 -0.026326 -0.0801272 45.1109 
1.54881 -0.0309138 -0.0801102 45.1109 
1.5491 -0.0353085 -0.0796225 45.9026 
1.54945 -0.0401478 -0.0796033 45.3141 
1.54973 -0.0444929 -0.0791146 45.5185 
1.55014 -0.0500907 -0.0795619 45.3141 
1.49969 0.634575 -0.0277309 37.0549 
1.50004 0.629746 -0.0277996 37.0549 
1.50038 0.624911 -0.0278677 36.688 
1.50084 0.618232 -0.0276541 37.2017 
1.50128 0.611846 -0.0274358 37.3493 
1.50172 0.605484 -0.0272165 37.4977 
1.50207 0.600675 -0.0272813 36.4055 
1.50241 0.59586 -0.0273456 37.1264 
1.50284 0.589543 -0.0271235 37.6467 
1.50319 0.584734 -0.0271863 38.027 
1.50353 0.57992 -0.0272484 37.274 
1.50396 0.57365 -0.0270237 37.7966 
1.50439 0.567404 -0.026798 37.9471 
1.50473 0.562607 -0.0268578 38.7216 
1.50507 0.557805 -0.0269171 38.3304 
1.50552 0.55134 -0.0266919 38.4833 
1.50595 0.545168 -0.0264625 42.5006 
1.50629 0.540381 -0.0265195 39.4336 
1.50663 0.535592 -0.0265758 39.4336 
1.50707 0.529201 -0.0263469 39.1872 
1.50741 0.524418 -0.0264017 39.5912 
1.50775 0.519631 -0.026456 40.0036 
1.50817 0.513555 -0.0262213 40.1636 
1.5085 0.508774 -0.0262742 40.1636 
1.50884 0.50399 -0.0263263 40.1636 
1.50918 0.499202 -0.0263779 39.3439 
1.5096 0.493186 -0.0261399 40.3244 
1.50994 0.488405 -0.0261901 40.7489 
1.51028 0.48362 -0.0262396 39.1025 
1.51062 0.478832 -0.0262885 39.1025 
1.51096 0.474041 -0.0263368 40.3244 
1.51137 0.468097 -0.0260947 39.2592 
1.51171 0.463313 -0.0261416 40.9122 
1.51204 0.458526 -0.0261878 39.2592 
1.51245 0.452634 -0.0259433 39.0225 
1.51281 0.447589 -0.0259906 40.2294 
1.51315 0.442807 -0.0260347 40.6485 
1.5135 0.437755 -0.0260807 39.0225 
1.51384 0.432965 -0.0261236 40.2294 
1.51418 0.428173 -0.0261658 41.0764 
1.51452 0.423378 -0.0262074 39.8189 
1.51486 0.41858 -0.0262484 39.4167 
1.5152 0.413777 -0.0262888 39.8189 
1.5156 0.40801 -0.0260372 39.9788 
1.51594 0.403218 -0.0260761 40.8117 
1.5163 0.398157 -0.0261166 39.575 
1.51664 0.393359 -0.0261543 39.9788 
1.51703 0.387658 -0.0258995 42.7574 
1.51737 0.382869 -0.0259358 40.5534 
1.51771 0.378078 -0.0259715 40.1396 
1.51805 0.373284 -0.0260065 40.1396 
1.51839 0.368488 -0.026041 39.7341 
1.51873 0.363689 -0.0260748 41.8476 
1.51913 0.357814 -0.0258172 40.7166 
1.51947 0.353025 -0.0258496 41.1407 
1.51981 0.348235 -0.0258814 39.894 
1.52019 0.342681 -0.0256197 41.7412 
1.52053 0.337901 -0.0256501 40.8806 
1.52087 0.333118 -0.0256799 40.8806 
1.52122 0.328068 -0.0257106 39.6542 
1.52156 0.323281 -0.0257391 41.7412 
1.52187 0.319173 -0.0260603 41.5738 
1.52224 0.313701 -0.0257942 41.3064 
1.5226 0.308641 -0.0258223 45.5795 
1.52294 0.303845 -0.0258483 47.2073 
1.52325 0.299667 -0.0261672 44.8808 
1.52365 0.293646 -0.0256045 44.2378 
1.52393 0.290036 -0.0262161 42.016 
1.52427 0.285217 -0.0262396 37.976 
1.52512 0.272068 -0.0245218 19.4527 
1.52543 0.267862 -0.024837 17.6748 
1.52579 0.262606 -0.0245635 15.8053 
1.52611 0.258366 -0.0248776 14.3923 
1.5264 0.254571 -0.0254856 13.505 
1.52671 0.250445 -0.0260942 12.8747 
1.527 0.246966 -0.0269958 11.9449 
1.52729 0.243392 -0.027897 12.2505 
1.52762 0.238895 -0.028209 12.6832 
1.52803 0.232499 -0.0273429 13.3639 
1.52841 0.226851 -0.0267696 15.1295 
1.52878 0.221264 -0.0261954 20.2317 
1.52912 0.216441 -0.0262099 19.4383 
1.52948 0.211349 -0.0262245 36.38 
1.52982 0.206524 -0.0262377 43.576 
1.53016 0.201698 -0.0262502 44.0602 
1.5305 0.196871 -0.0262621 45.5795 
1.53086 0.191775 -0.026274 46.652 
1.5312 0.186946 -0.0262847 47.2073 
1.53154 0.182116 -0.0262947 46.652 
1.53188 0.177286 -0.026304 47.7761 
1.53224 0.172187 -0.0263132 48.9558 
1.53258 0.167355 -0.0263212 47.2073 
1.53292 0.162522 -0.0263287 47.7761 
1.53327 0.15769 -0.0263354 46.652 
1.53361 0.152857 -0.0263416 47.2073 
1.53395 0.148023 -0.0263471 47.2073 
1.5343 0.142808 -0.026057 47.3977 
1.53464 0.137989 -0.0260612 47.3977 
1.53498 0.133169 -0.0260648 47.3977 
1.53532 0.12835 -0.0260677 47.3977 
1.53566 0.123531 -0.02607 46.8401 
1.53601 0.118746 -0.026367 47.2073 
1.53635 0.11391 -0.026368 46.652 
1.5367 0.109075 -0.0263684 47.2073 
1.53704 0.103984 -0.0260729 48.5537 
1.53738 0.0991641 -0.026072 49.7676 
1.53772 0.0943445 -0.0260705 50.3975 
1.53805 0.0895847 -0.0257731 48.1623 
1.5384 0.0847051 -0.0260656 45.7633 
1.53872 0.0799778 -0.0257669 44.4164 
1.53906 0.0751748 -0.0257629 42.9836 
1.5394 0.0703713 -0.0257582 42.5263 
1.53974 0.0655689 -0.0257529 42.0787 
1.54008 0.060767 -0.025747 42.0787 
1.54041 0.0559655 -0.0257404 41.2111 
1.54075 0.0511646 -0.0257332 41.6404 
1.54107 0.0466303 -0.0257259 40.3785 
1.54141 0.0418306 -0.0257175 40.7906 
1.54175 0.0370306 -0.0257084 40.7906 
1.54209 0.0322321 -0.0256988 40.3785 
1.54242 0.0274345 -0.0256885 40.7906 
1.54276 0.0226376 -0.0256775 40.3785 
1.5431 0.0178415 -0.025666 40.7906 
1.5434 0.0133555 -0.025359 40.9553 
1.54378 0.00825132 -0.025641 40.3785 
1.54409 0.0037238 -0.0256283 40.7906 
1.54441 -0.000802039 -0.0256151 40.7906 
1.54473 -0.00532732 -0.0256013 40.3785 
1.54515 -0.0110372 -0.0258789 41.473 
1.54548 -0.0158419 -0.025863 41.0454 
1.5458 -0.0203785 -0.0258473 40.6266 
1.54614 -0.0251808 -0.0258301 40.6266 
1.54648 -0.0299817 -0.0258123 41.9095 
1.54682 -0.0347813 -0.0257938 40.2162 
1.54715 -0.0395795 -0.0257747 40.6266 
1.54749 -0.0443762 -0.025755 41.0454 
1.54783 -0.0491714 -0.0257347 40.6266 
1.54817 -0.0539651 -0.0257137 41.0454 
1.5381 -0.168549 0.408209 41.7946 
1.53844 -0.173373 0.408246 41.7946 
1.53878 -0.178195 0.408283 39.8507 
1.53914 -0.183912 0.409415 40.619 
1.53948 -0.188743 0.409453 39.6744 
1.53982 -0.193571 0.409492 41.6097 
1.54015 -0.198396 0.409532 39.6744 
1.54049 -0.203217 0.409573 39.6744 
1.54083 -0.208036 0.409614 43.7435 
1.54117 -0.212852 0.409655 39.6744 
1.54153 -0.218667 0.410793 40.4398 
1.54184 -0.222473 0.40974 38.7727 
1.54223 -0.228579 0.410882 41.4262 
1.54256 -0.233397 0.410926 40.4398 
1.5173 0.131535 0.399558 39.2945 
1.51798 0.121942 0.399553 43.1282 
1.51827 0.117175 0.400642 41.9112 
1.51861 0.112363 0.400641 41.9112 
1.51895 0.107551 0.400641 44.0067 
1.51931 0.102472 0.400641 44.0067 
1.51965 0.09766 0.400642 41.9112 
1.51999 0.0928486 0.400643 44.0067 
1.52033 0.0880373 0.400646 41.9112 
1.52066 0.0832262 0.400648 40.9365 
1.52104 0.078508 0.399561 44.2064 
1.52138 0.0737126 0.399565 41.1222 
1.52172 0.0689174 0.39957 42.1013 
1.52206 0.0641227 0.399575 45.3399 
1.52239 0.0593276 0.399581 43.1282 
1.52273 0.0545337 0.399588 38.4403 
1.52307 0.0497404 0.399595 42.1013 
1.52339 0.0452133 0.399602 42.1013 
1.52373 0.0404211 0.399611 42.1013 
1.52404 0.0354008 0.400711 42.9334 
1.52437 0.0305948 0.40072 44.0067 
1.52471 0.0257888 0.400731 41.9112 
1.52505 0.0209844 0.400742 41.9112 
1.52539 0.0161808 0.400753 40.9365 
1.52573 0.0113782 0.400766 42.9334 
1.52606 0.00657566 0.400778 40.0061 
1.52638 0.00204189 0.400791 45.1351 
1.5267 -0.00249158 0.400804 41.9112 
1.52702 -0.00702391 0.400818 41.9112 
1.5274 -0.0123548 0.400835 42.9334 
1.52774 -0.0171513 0.400851 42.9334 
1.52805 -0.0216803 0.400867 45.1351 
1.52838 -0.0268978 0.401976 39.8259 
1.52871 -0.0317057 0.401994 41.7224 
1.52905 -0.0365122 0.402012 41.7224 
1.52939 -0.0413173 0.402031 41.7224 
1.52973 -0.046121 0.402051 38.9409 
1.53007 -0.0509231 0.402071 40.7521 
1.5304 -0.0557237 0.402093 41.7224 
1.53076 -0.0607892 0.402115 40.7521 
1.5311 -0.0655864 0.402138 44.9318 
1.53143 -0.0703819 0.402161 41.7224 
1.53177 -0.0757505 0.403276 41.5351 
1.5321 -0.0805575 0.403301 39.6471 
1.53244 -0.0853626 0.403326 38.7661 
1.53278 -0.0907857 0.404444 41.3491 
1.53312 -0.095602 0.40447 40.3875 
1.53344 -0.100149 0.404495 41.3491 
1.53378 -0.105625 0.405615 43.2228 
1.53411 -0.109772 0.404551 43.4166 
1.53445 -0.115274 0.405673 38.4202 
1.53481 -0.120362 0.405704 41.1646 
1.53515 -0.125181 0.405734 41.1646 
1.54046 -0.168416 0.351745 37.4076 
1.54077 -0.172359 0.350857 38.1215 
1.51039 0.262106 0.344603 38.0069 
1.51073 0.257338 0.344583 38.0069 
1.51107 0.25257 0.344563 38.0069 
1.51142 0.247534 0.344544 38.0069 
1.51176 0.242762 0.344525 38.5578 
1.5121 0.23799 0.344508 38.5578 
1.51244 0.233214 0.344491 38.5578 
1.51279 0.228173 0.344474 38.5578 
1.51313 0.223396 0.344459 38.5578 
1.51347 0.218619 0.344444 38.5578 
1.5138 0.213839 0.344429 38.5578 
1.51416 0.208794 0.344415 38.0069 
1.5145 0.204012 0.344402 39.1248 
1.51484 0.199229 0.34439 38.0069 
1.51523 0.194171 0.343457 38.1726 
1.51559 0.189138 0.343445 38.1726 
1.51592 0.184368 0.343435 38.1726 
1.51626 0.179598 0.343425 38.7259 
1.5166 0.174826 0.343416 38.7259 
1.5169 0.169987 0.344328 38.0069 
1.51724 0.165199 0.34432 38.5578 
1.51758 0.16041 0.344312 38.5578 
1.51796 0.15547 0.343385 38.7259 
1.51825 0.150833 0.3443 37.4716 
1.51864 0.145921 0.343373 38.1726 
1.51899 0.140881 0.343368 37.635 
1.51933 0.136106 0.343364 38.1726 
1.51967 0.131331 0.343361 38.1726 
1.52 0.126555 0.343358 38.1726 
1.52034 0.121779 0.343356 38.1726 
1.52068 0.117003 0.343354 38.7259 
1.52102 0.112227 0.343353 37.635 
1.52135 0.107451 0.343353 38.1726 
1.52171 0.102409 0.343353 38.1726 
1.52204 0.0976331 0.343354 38.1726 
1.52238 0.0928564 0.343356 38.1726 
1.52272 0.0880806 0.343358 38.1726 
1.52309 0.0833844 0.34244 38.895 
1.52342 0.0786243 0.342443 38.895 
1.52373 0.0737538 0.343368 38.1726 
1.52406 0.0689791 0.343373 37.635 
1.5244 0.0642047 0.343378 38.1726 
1.52474 0.0594308 0.343384 38.1726 
1.52505 0.0544856 0.344312 38.5578 
1.52538 0.0496974 0.344319 38.0069 
1.5257 0.0451759 0.344327 38.0069 
1.52604 0.0403881 0.344335 37.4716 
1.5264 0.0358328 0.343423 38.1726 
1.52671 0.030816 0.344354 38.0069 
1.52707 0.0262926 0.343443 37.635 
1.52741 0.0215229 0.343454 38.1726 
1.52773 0.0164628 0.344387 38.0069 
1.52806 0.0116804 0.344399 38.5578 
1.5284 0.00689891 0.344412 38.0069 
1.52872 0.00238346 0.344425 38.0069 
1.52902 -0.00248195 0.345359 37.8422 
1.52935 -0.00664385 0.344452 38.5578 
1.52973 -0.0119522 0.344469 38.0069 
1.53005 -0.0171264 0.345406 38.3906 
1.53037 -0.0216506 0.345422 38.3906 
1.53071 -0.0264397 0.345439 38.3906 
1.53104 -0.0312274 0.345457 38.3906 
1.53137 -0.0364717 0.346397 37.6783 
1.53171 -0.0412719 0.346416 37.6783 
1.53205 -0.0460706 0.346436 37.6783 
1.53239 -0.0508678 0.346456 37.6783 
1.53272 -0.0556635 0.346477 37.1476 
1.53308 -0.0601892 0.345578 38.3906 
1.53342 -0.0649664 0.345601 37.3092 
1.53375 -0.0697418 0.345623 37.3092 
1.53409 -0.0750956 0.346569 37.1476 
1.53443 -0.0798827 0.346593 37.6783 
1.53476 -0.0846679 0.346618 37.6783 
1.53511 -0.0900768 0.347566 36.987 
1.53544 -0.0942326 0.34667 37.6783 
1.53575 -0.0987465 0.346695 37.6783 
1.53609 -0.103524 0.346722 36.1299 
1.53643 -0.108985 0.347673 37.5154 
1.53677 -0.113773 0.347702 38.0591 
1.53714 -0.119541 0.348656 36.8274 
1.53748 -0.12434 0.348686 36.8274 
1.50588 0.354687 0.296442 43.0644 
1.50622 0.349829 0.29641 43.5274 
1.50665 0.344228 0.295629 43.2654 
1.50699 0.33938 0.295598 43.2654 
1.50744 0.333551 0.294817 42.1232 
1.50778 0.328713 0.294788 42.1232 
1.50812 0.323874 0.294759 42.1232 
1.50846 0.319033 0.294731 43.01 
1.5089 0.313272 0.293953 41.8884 
1.50917 0.309074 0.294675 43.01 
1.50959 0.303608 0.2939 41.0506 
1.50993 0.298774 0.293875 43.2112 
1.51027 0.293938 0.29385 41.8884 
1.51054 0.289671 0.294574 41.6934 
1.51097 0.283991 0.293801 44.1404 
1.51132 0.279149 0.293778 43.6709 
1.51166 0.274305 0.293756 43.6709 
1.512 0.26946 0.293735 41.8884 
1.51241 0.264119 0.292965 43.8753 
1.51275 0.259286 0.292945 43.8753 
1.51311 0.254183 0.292924 41.6594 
1.51345 0.249346 0.292906 43.8753 
1.5138 0.244508 0.292887 44.3471 
1.51414 0.23967 0.29287 44.3471 
1.5145 0.23456 0.292852 43.4134 
1.51478 0.230104 0.293583 43.2112 
1.51515 0.224976 0.293567 44.6202 
1.51547 0.220386 0.293552 43.2112 
1.51583 0.215256 0.293537 43.6709 
1.51623 0.210072 0.292776 42.0844 
1.51657 0.205225 0.292762 44.3471 
1.51691 0.200377 0.29275 41.6594 
1.51728 0.195258 0.292737 43.8753 
1.51762 0.190408 0.292726 43.8753 
1.51796 0.185557 0.292716 42.9612 
1.5183 0.180706 0.292706 42.0844 
1.51867 0.175584 0.292696 43.4134 
1.51905 0.170533 0.29194 44.0808 
1.51935 0.165878 0.292679 43.8753 
1.51974 0.160855 0.291925 42.2816 
1.52008 0.156016 0.291918 43.6168 
1.52042 0.151176 0.291912 41.436 
1.52074 0.146188 0.292653 42.0844 
1.52108 0.141332 0.292649 43.8753 
1.52143 0.136475 0.292645 43.4134 
1.52173 0.131693 0.293388 42.7611 
1.52211 0.126761 0.292638 42.9612 
1.52245 0.121905 0.292636 41.6594 
1.52286 0.116991 0.29114 42.0507 
1.52317 0.112177 0.291886 44.0808 
1.52351 0.107335 0.291886 42.7175 
1.52384 0.102205 0.292634 42.9612 
1.52419 0.0973477 0.292635 42.9612 
1.52453 0.0924906 0.292636 42.9612 
1.52487 0.0876329 0.292638 43.4134 
1.52521 0.0827761 0.292641 41.6594 
1.52558 0.0780153 0.291898 42.2816 
1.52592 0.0731745 0.291902 41.436 
1.5263 0.0681921 0.29116 42.4798 
1.52664 0.0633674 0.291165 43.8213 
1.52696 0.0588106 0.291171 41.2181 
1.52728 0.0538142 0.291925 42.2816 
1.52763 0.0489747 0.291932 41.8545 
1.52797 0.0441366 0.29194 41.436 
1.52829 0.0395682 0.291948 41.436 
1.52863 0.0347305 0.291958 41.436 
1.52897 0.0298944 0.291967 42.7175 
1.52931 0.025059 0.291978 43.1625 
1.52964 0.0199453 0.292737 44.3471 
1.52998 0.0150954 0.292748 41.6594 
1.53034 0.00997849 0.292762 43.4134 
1.53066 0.00540007 0.292774 42.9612 
1.53098 0.000482758 0.293534 41.4653 
1.53131 -0.00375329 0.2928 44.3471 
1.53163 -0.00832853 0.292814 43.4134 
1.53201 -0.0137099 0.292832 41.2428 
1.53235 -0.0185518 0.292848 43.4134 
1.53269 -0.0233925 0.292865 42.0844 
1.53301 -0.0279631 0.292881 42.9612 
1.53335 -0.0328012 0.292899 42.0844 
1.53369 -0.0380996 0.293666 40.6442 
1.53404 -0.0429502 0.293685 43.2112 
1.53438 -0.0477994 0.293705 44.1404 
1.53472 -0.052647 0.293726 43.6709 
1.53508 -0.0577622 0.293749 42.7611 
1.53542 -0.0631455 0.294519 43.01 
1.53577 -0.0680035 0.294542 41.2722 
1.53611 -0.0728597 0.294565 42.562 
1.53645 -0.0777141 0.294589 43.01 
1.5368 -0.0831668 0.295362 43.2654 
1.53714 -0.0880328 0.295388 42.364 
1.53749 -0.0928969 0.295413 42.81 
1.53783 -0.097759 0.29544 43.2654 
1.53817 -0.102619 0.295467 42.81 
1.53849 -0.107207 0.295494 42.81 
1.53883 -0.112063 0.295522 42.364 
1.53919 -0.117187 0.295553 40.6695 
1.53953 -0.122038 0.295583 42.364 
1.49608 0.525757 0.242322 28.1007 
1.49641 0.521049 0.242268 28.5079 
1.49675 0.516336 0.242214 28.5079 
1.49708 0.51162 0.242161 28.5079 
1.49742 0.506899 0.242108 28.5079 
1.49775 0.502175 0.242056 28.1007 
1.4982 0.496213 0.241422 28.2519 
1.49853 0.491496 0.241371 28.2519 
1.49887 0.486775 0.241321 27.854 
1.4992 0.482051 0.241272 28.2519 
1.49954 0.477322 0.241223 28.2519 
1.49998 0.471432 0.240593 28.4042 
1.50032 0.466712 0.240545 28.4042 
1.50065 0.461988 0.240499 28.0041 
1.50099 0.457259 0.240452 28.4042 
1.50132 0.452528 0.240407 28.4042 
1.50168 0.447531 0.24036 28.8158 
1.50211 0.441726 0.239734 28.5574 
1.50246 0.436737 0.239688 28.1552 
1.5029 0.430972 0.239065 28.7117 
1.50323 0.426254 0.239023 28.3073 
1.50366 0.420528 0.238401 29.2853 
1.5039 0.416809 0.23894 28.7117 
1.50433 0.411107 0.23832 28.867 
1.50466 0.406392 0.238281 29.2853 
1.50491 0.402619 0.238822 28.7117 
1.50535 0.396692 0.238201 28.4604 
1.50569 0.391967 0.238164 28.867 
1.50602 0.387241 0.238127 28.4604 
1.50636 0.382512 0.23809 28.867 
1.50669 0.37778 0.238055 28.867 
1.50703 0.373044 0.23802 28.4604 
1.50736 0.368307 0.237985 28.867 
1.50778 0.362746 0.237372 29.0233 
1.50813 0.357756 0.237337 29.0233 
1.50847 0.353026 0.237305 28.6145 
1.50888 0.347518 0.236694 28.7696 
1.50922 0.342799 0.236663 29.1806 
1.50947 0.338822 0.237211 28.6145 
1.50988 0.333353 0.236603 28.7696 
1.51024 0.328365 0.236572 29.6035 
1.51057 0.323636 0.236543 28.7696 
1.51091 0.318905 0.236515 29.1806 
1.51131 0.313505 0.23591 28.9257 
1.51167 0.308524 0.235882 29.3389 
1.512 0.303802 0.235856 29.3389 
1.51233 0.299079 0.23583 28.9257 
1.51267 0.294353 0.235805 28.9257 
1.513 0.289626 0.235781 29.3389 
1.51334 0.284898 0.235758 28.9257 
1.51369 0.279904 0.235733 28.9257 
1.51402 0.275172 0.235711 29.3389 
1.51436 0.270438 0.235689 28.9257 
1.51469 0.265701 0.235668 29.3389 
1.51503 0.260964 0.235648 28.9257 
1.51536 0.256225 0.235628 28.9257 
1.51572 0.251222 0.235608 29.3389 
1.51611 0.246031 0.235013 29.0828 
1.51644 0.241302 0.234995 29.4983 
1.51678 0.236573 0.234977 29.0828 
1.51713 0.23158 0.23496 29.4983 
1.51746 0.226849 0.234944 29.0828 
1.51782 0.221853 0.234928 29.4983 
1.51813 0.217382 0.234914 29.0828 
1.51849 0.212384 0.234899 29.0828 
1.51887 0.207323 0.234309 29.6588 
1.51916 0.20291 0.234873 29.0828 
1.51949 0.198172 0.234861 29.4983 
1.51989 0.192893 0.234272 29.241 
1.52018 0.18843 0.234838 29.0828 
1.52051 0.18369 0.234827 29.4983 
1.52085 0.178948 0.234818 29.0828 
1.5212 0.173942 0.234808 29.0828 
1.52154 0.169199 0.2348 29.0828 
1.52187 0.164456 0.234792 29.0828 
1.52224 0.159544 0.234209 29.241 
1.52258 0.154815 0.234202 29.241 
1.52291 0.150085 0.234196 29.241 
1.52326 0.145093 0.234191 29.241 
1.52363 0.140257 0.23361 29.4003 
1.52393 0.135632 0.234182 29.241 
1.52426 0.130901 0.234179 29.241 
1.5246 0.126169 0.234176 29.241 
1.52493 0.121438 0.234174 29.241 
1.52524 0.116735 0.234748 29.0828 
1.52557 0.111988 0.234748 29.0828 
1.52593 0.107243 0.234171 29.241 
1.52628 0.102249 0.234172 29.241 
1.52662 0.0975174 0.234173 29.241 
1.52695 0.0927861 0.234174 29.241 
1.52728 0.088055 0.234177 28.8349 
1.52762 0.0833233 0.234179 29.241 
1.52795 0.0785925 0.234183 29.241 
1.52827 0.0737501 0.234763 29.0828 
1.52862 0.0687406 0.234768 29.0828 
1.52896 0.0639955 0.234774 29.0828 
1.52927 0.0595138 0.234779 29.0828 
1.52961 0.0547695 0.234786 29.0828 
1.52994 0.0500257 0.234793 29.0828 
1.53027 0.0452825 0.234801 29.0828 
1.5306 0.0410223 0.234233 29.241 
1.53093 0.0362958 0.234242 29.241 
1.53126 0.03157 0.234251 29.241 
1.53159 0.0265783 0.234838 29.0828 
1.53193 0.0218386 0.234849 29.0828 
1.53226 0.0170998 0.234861 29.0828 
1.53261 0.0120983 0.234873 29.4983 
1.53293 0.00762397 0.234886 29.0828 
1.53324 0.00315128 0.234898 29.4983 
1.53356 -0.00132114 0.234911 29.0828 
1.53387 -0.0057924 0.234925 29.0828 
1.53424 -0.0110514 0.234942 29.0828 
1.53457 -0.0157833 0.234958 29.0828 
1.53491 -0.020514 0.234974 29.0828 
1.53522 -0.0249807 0.234991 29.4983 
1.53555 -0.0297089 0.235008 29.0828 
1.53589 -0.0344358 0.235027 29.4983 
1.53622 -0.0391612 0.235046 28.6789 
1.53656 -0.0443807 0.235642 29.3389 
1.5369 -0.0491186 0.235662 28.9257 
1.53725 -0.054118 0.235684 28.9257 
1.49289 0.59971 0.193718 51.8885 
1.49336 0.59339 0.193242 52.0981 
1.49382 0.587094 0.192767 52.7975 
1.49416 0.582288 0.192704 52.3087 
1.49463 0.576027 0.19223 53.5113 
1.49497 0.571227 0.192169 54.0209 
1.49543 0.565002 0.191698 52.733 
1.49577 0.560208 0.191638 53.2259 
1.49613 0.555142 0.191576 54.2397 
1.49647 0.550338 0.191517 53.728 
1.49681 0.54553 0.19146 53.2259 
1.49726 0.539373 0.190992 55.5171 
1.49762 0.534304 0.190933 55.5171 
1.49796 0.529498 0.190877 54.9832 
1.49841 0.523389 0.190413 57.9946 
1.49865 0.519873 0.190768 54.9832 
1.49899 0.515055 0.190714 54.9832 
1.49944 0.508979 0.190252 57.4146 
1.49967 0.505406 0.190609 54.9832 
1.50002 0.500575 0.190557 56.6164 
1.50046 0.494532 0.190097 57.4146 
1.5008 0.489709 0.190046 55.7423 
1.50125 0.483704 0.189588 55.4306 
1.50159 0.478889 0.189539 54.9027 
1.50203 0.472921 0.189083 57.3091 
1.50237 0.468114 0.189035 57.3091 
1.50271 0.463303 0.188988 56.1963 
1.50305 0.458488 0.188942 56.1963 
1.50351 0.452316 0.188486 55.8824 
1.50385 0.447509 0.188441 55.3502 
1.50421 0.442431 0.188395 55.3502 
1.50455 0.437618 0.188351 56.425 
1.50489 0.432802 0.188308 55.3502 
1.50523 0.427982 0.188266 57.5423 
1.50557 0.423159 0.188224 56.425 
1.50592 0.418332 0.188183 55.8824 
1.50643 0.411575 0.18733 55.8023 
1.50677 0.406773 0.18729 56.8858 
1.50713 0.401702 0.187249 55.8023 
1.50747 0.396894 0.187211 57.4435 
1.50781 0.392083 0.187173 59.7882 
1.50815 0.38727 0.187136 58.0123 
1.50849 0.382454 0.1871 57.4435 
1.50891 0.376779 0.186659 56.5687 
1.50925 0.371972 0.186624 57.118 
1.50959 0.367163 0.186589 55.5014 
1.50995 0.362084 0.186554 58.249 
1.51029 0.357271 0.186521 56.5687 
1.51063 0.352454 0.186488 56.03 
1.51097 0.347636 0.186456 58.8315 
1.51132 0.342814 0.186425 57.118 
1.51166 0.33799 0.186395 59.4258 
1.51202 0.332896 0.186363 56.03 
1.51236 0.328068 0.186334 56.5687 
1.51277 0.322552 0.185901 60.2773 
1.51311 0.317734 0.185873 58.4869 
1.5134 0.313302 0.186249 56.5687 
