ply
format ascii 1.0
comment Generated by the CGAL library
element vertex 106
property double x
property double y
property double z
end_header
1.55763 0.325814 -0.345333 
1.55724 0.323335 -0.346874 
1.55731 0.3227 -0.349828 
1.55644 0.318275 -0.349955 
1.56689 0.386873 -0.302298 
1.56601 0.382417 -0.302439 
1.56464 0.375934 -0.301337 
1.56517 0.377246 -0.305212 
1.56332 0.36876 -0.302864 
1.56244 0.364276 -0.303002 
1.56155 0.359787 -0.303138 
1.56067 0.355292 -0.303273 
1.55978 0.35079 -0.303408 
1.55884 0.346031 -0.303549 
1.55795 0.341515 -0.303681 
1.5566 0.335101 -0.302567 
1.55525 0.328707 -0.30145 
1.57262 0.436008 -0.242141 
1.57381 0.44051 -0.246558 
1.57243 0.433904 -0.245643 
1.5741 0.440427 -0.251131 
1.57373 0.438122 -0.252351 
1.57284 0.433626 -0.252503 
1.57195 0.429122 -0.252654 
1.57151 0.42649 -0.253881 
1.57062 0.421957 -0.25403 
1.56973 0.417418 -0.254179 
1.56883 0.412872 -0.254326 
1.56794 0.40832 -0.254473 
1.56704 0.40376 -0.254618 
1.56614 0.399193 -0.254763 
1.56524 0.39462 -0.254906 
1.56381 0.387767 -0.253984 
1.56291 0.383194 -0.254125 
1.56201 0.378614 -0.254266 
1.5611 0.374027 -0.254405 
1.55974 0.367471 -0.253469 
1.55975 0.366786 -0.255755 
1.55788 0.358039 -0.253749 
1.55606 0.349599 -0.251733 
1.5538 0.339299 -0.248637 
1.52993 0.259721 -0.12937 
1.52861 0.253329 -0.12875 
1.52814 0.250655 -0.129603 
1.52688 0.244526 -0.128974 
1.52639 0.241813 -0.129826 
1.52509 0.235457 -0.129201 
1.52421 0.231037 -0.129309 
1.52329 0.226367 -0.129423 
1.52242 0.221937 -0.12953 
1.52154 0.217502 -0.129636 
1.52066 0.213061 -0.129741 
1.51979 0.208617 -0.129845 
1.51891 0.204167 -0.129948 
1.51798 0.199465 -0.130056 
1.5171 0.195006 -0.130157 
1.51622 0.190542 -0.130257 
1.51533 0.186072 -0.130357 
1.5144 0.18135 -0.130461 
1.51351 0.176872 -0.130558 
1.51228 0.170914 -0.129908 
1.5114 0.166441 -0.130004 
1.51052 0.161964 -0.130098 
1.50996 0.158914 -0.130938 
1.50903 0.154163 -0.131036 
1.50813 0.149658 -0.131127 
1.50724 0.145149 -0.131218 
1.50635 0.140636 -0.131308 
1.50546 0.136118 -0.131397 
1.50425 0.130253 -0.130736 
1.50367 0.12707 -0.131571 
1.52972 0.275616 -0.0793267 
1.52757 0.264949 -0.0789923 
1.52626 0.258509 -0.0785454 
1.525 0.252341 -0.0780905 
1.52413 0.247912 -0.0782026 
1.52325 0.243478 -0.0783139 
1.52196 0.237105 -0.0778608 
1.52108 0.232673 -0.0779698 
1.52016 0.227991 -0.0780838 
1.51891 0.221908 -0.0776203 
1.51768 0.215849 -0.0771551 
1.5168 0.211427 -0.0772596 
1.51629 0.2086 -0.0779348 
1.51541 0.204153 -0.0780378 
1.51448 0.199455 -0.0781454 
1.5136 0.195 -0.0782465 
1.51306 0.192079 -0.0789196 
1.51218 0.1876 -0.0790191 
1.51124 0.182866 -0.0791231 
1.51069 0.179871 -0.0797946 
1.51013 0.176844 -0.0804658 
1.52366 0.263927 -0.0238217 
1.52318 0.261349 -0.0243294 
1.52194 0.25521 -0.0240498 
1.52145 0.252593 -0.0245564 
1.52133 0.251674 -0.0254571 
1.52114 0.250447 -0.0263646 
1.52136 0.251106 -0.0276613 
1.52156 0.251674 -0.0289593 
1.52102 0.248798 -0.029467 
1.519 0.238991 -0.028396 
1.5174 0.231166 -0.0277123 
1.5158 0.223393 -0.0270263 
1.51492 0.218907 -0.0271322 
1.51836 0.254749 0.0276314 
