ply
format ascii 1.0
comment Generated by the CGAL library
element vertex 1325
property double x
property double y
property double z
property float intensity
end_header
1.51675 0.627599 -0.423936 55.6183 
1.51709 0.622722 -0.42378 55.1033 
1.51743 0.61784 -0.423625 55.6183 
1.51787 0.611427 -0.423421 55.8461 
1.51831 0.605039 -0.423217 55.5558 
1.51865 0.600172 -0.423062 56.075 
1.51909 0.593816 -0.42286 56.8362 
1.51953 0.587485 -0.422658 57.0696 
1.51986 0.582632 -0.422503 56.5362 
1.5203 0.576335 -0.422303 57.3042 
1.52073 0.570062 -0.422103 59.2158 
1.52109 0.564954 -0.42194 58.6465 
1.52142 0.560111 -0.421786 59.2158 
1.52176 0.555264 -0.421631 59.2158 
1.52219 0.549047 -0.421433 60.0426 
1.52254 0.543936 -0.42127 60.0426 
1.52288 0.53909 -0.421116 60.0426 
1.5233 0.532917 -0.420919 58.0149 
1.52364 0.528077 -0.420765 57.4728 
1.52397 0.523233 -0.420611 56.9406 
1.52431 0.518385 -0.420456 53.9437 
1.52464 0.513533 -0.420302 42.7054 
1.52507 0.507428 -0.420107 40.6247 
1.5254 0.502583 -0.419953 46.7799 
1.52574 0.497732 -0.419798 56.1359 
1.52607 0.49288 -0.419644 57.7098 
1.52641 0.488022 -0.419489 59.3745 
1.52674 0.483161 -0.419334 57.1755 
1.52716 0.477137 -0.419142 57.9481 
1.52742 0.473429 -0.419024 58.8091 
1.52783 0.467425 -0.418833 59.6197 
1.52819 0.462294 -0.418669 60.7887 
1.52853 0.45743 -0.418514 60.1985 
1.52888 0.452292 -0.41835 60.1985 
1.52929 0.44635 -0.418161 59.2959 
1.52963 0.44149 -0.418006 61.0399 
1.52996 0.436628 -0.417851 59.866 
1.53023 0.432786 -0.417729 60.7887 
1.53057 0.427902 -0.417573 61.3905 
1.53091 0.423014 -0.417418 61.3905 
1.53131 0.417142 -0.417231 60.4472 
1.53167 0.411992 -0.417066 59.866 
1.53201 0.407108 -0.416911 59.866 
1.53234 0.402224 -0.416755 59.866 
1.53268 0.397336 -0.4166 59.866 
1.53302 0.392445 -0.416444 61.6442 
1.53336 0.387552 -0.416288 61.0399 
1.53364 0.383531 -0.41616 61.3905 
1.53404 0.377756 -0.415976 61.6442 
1.5344 0.37258 -0.415811 59.866 
1.53474 0.367677 -0.415655 61.0399 
1.53507 0.36277 -0.415498 59.2959 
1.53541 0.357859 -0.415342 59.866 
1.53575 0.352947 -0.415185 60.4472 
1.53609 0.348033 -0.415029 58.1875 
1.53645 0.342842 -0.414863 58.1875 
1.53679 0.337923 -0.414707 58.7365 
1.53713 0.333002 -0.41455 59.866 
1.53757 0.326655 -0.414348 59.2235 
1.53798 0.320791 -0.414161 59.4689 
1.53836 0.315228 -0.413983 59.1574 
1.53875 0.309693 -0.413807 58.3129 
1.53908 0.304835 -0.413652 57.7828 
1.53946 0.29934 -0.413477 59.6497 
1.53976 0.295114 -0.413343 61.1165 
1.54015 0.289377 -0.41316 60.2124 
1.54045 0.285116 -0.413024 59.9633 
1.54078 0.280249 -0.412869 59.4029 
1.54112 0.275382 -0.412714 59.9633 
1.54146 0.270511 -0.412559 59.9633 
1.5418 0.265639 -0.412404 59.4029 
1.54215 0.260494 -0.41224 60.5344 
1.54249 0.25562 -0.412084 59.9633 
1.54279 0.251227 -0.411944 59.7155 
1.54316 0.245865 -0.411774 59.9633 
1.54349 0.241167 -0.411624 59.7155 
1.54383 0.236271 -0.411468 59.7155 
1.54421 0.230681 -0.41129 59.9633 
1.54456 0.225662 -0.41113 60.2124 
1.54489 0.220914 -0.410979 59.4029 
1.54525 0.215652 -0.410811 60.2124 
1.54559 0.21078 -0.410656 60.7858 
1.54595 0.205563 -0.410489 61.6255 
1.54631 0.200434 -0.410326 59.8976 
1.54664 0.195575 -0.410171 61.0385 
1.547 0.190415 -0.410007 61.2925 
1.54734 0.185569 -0.409852 61.2925 
1.54767 0.180722 -0.409698 59.8976 
1.54802 0.175606 -0.409535 60.7143 
1.54834 0.170996 -0.409388 61.6255 
1.54868 0.166133 -0.409233 60.4627 
1.54903 0.16106 -0.409072 61.2925 
1.54935 0.156402 -0.408923 61.6255 
1.54971 0.151267 -0.40876 61.0385 
1.55006 0.146239 -0.408599 61.2925 
1.55039 0.141389 -0.408445 61.8819 
1.55072 0.136669 -0.408294 61.0385 
1.55106 0.131685 -0.408136 61.2925 
1.5514 0.126833 -0.407981 60.7143 
1.55173 0.122068 -0.407829 60.4627 
1.55207 0.1172 -0.407674 60.4627 
1.5524 0.112333 -0.407519 61.6255 
1.55276 0.107195 -0.407355 61.0385 
1.55309 0.102327 -0.4072 61.0385 
1.55343 0.097459 -0.407045 61.0385 
1.55377 0.092592 -0.40689 61.0385 
1.55411 0.0877245 -0.406735 61.6255 
1.55444 0.0828569 -0.40658 61.0385 
1.55478 0.0780409 -0.406427 61.8819 
1.55513 0.07292 -0.406263 60.7143 
1.55547 0.0680685 -0.406109 60.7143 
1.5558 0.0632181 -0.405954 60.7143 
1.55612 0.0586372 -0.405808 60.7143 
1.55646 0.0536613 -0.40565 61.6255 
1.55679 0.048938 -0.405499 60.7143 
1.55712 0.0440888 -0.405345 60.7143 
1.55745 0.0393401 -0.405193 60.4627 
1.55779 0.0344779 -0.405039 61.0385 
1.55813 0.0296156 -0.404884 61.0385 
1.55846 0.0247542 -0.404729 61.0385 
1.5588 0.0198943 -0.404574 61.0385 
1.55914 0.0150115 -0.404418 61.2925 
1.55949 0.00990698 -0.404256 61.6255 
1.55981 0.00531846 -0.40411 60.4627 
1.56012 0.000732422 -0.403963 60.4627 
1.56044 -0.00385341 -0.403817 61.0385 
1.5608 -0.00897753 -0.403654 61.0385 
1.56113 -0.0138314 -0.403499 61.6255 
1.56147 -0.0186833 -0.403345 59.8976 
1.5618 -0.023534 -0.40319 60.4627 
1.56215 -0.0284939 -0.403032 62.5737 
1.56251 -0.0337525 -0.402865 59.4029 
1.56282 -0.0382195 -0.402722 60.7858 
1.56316 -0.0430798 -0.402568 60.2124 
1.56352 -0.0483791 -0.402399 59.9633 
1.56388 -0.0535222 -0.402235 59.9633 
1.56418 -0.0579223 -0.402095 60.7858 
1.56455 -0.0632626 -0.401924 59.9633 
1.56485 -0.0676289 -0.401785 60.7858 
1.56519 -0.0724795 -0.401631 60.7858 
1.56553 -0.0773285 -0.401476 60.7858 
1.51264 0.650008 -0.36338 48.9631 
1.51298 0.645125 -0.363236 48.518 
1.51343 0.638632 -0.363046 49.1584 
1.51378 0.633481 -0.362895 48.7115 
1.51423 0.627022 -0.362705 49.3548 
1.51457 0.622146 -0.362562 49.8117 
1.51502 0.615721 -0.362374 49.5521 
1.51546 0.609319 -0.362186 49.2981 
1.5159 0.602941 -0.361999 49.4956 
1.51624 0.598088 -0.361856 50.4122 
1.51668 0.591744 -0.36167 50.6143 
1.51701 0.586897 -0.361528 50.6143 
1.51745 0.580586 -0.361343 50.3513 
1.51779 0.575745 -0.361201 51.2924 
1.51812 0.570898 -0.361059 50.3513 
1.51857 0.564364 -0.360867 51.0217 
1.51901 0.558124 -0.360684 52.1934 
1.51934 0.553292 -0.360542 52.1934 
1.51968 0.548456 -0.3604 51.2269 
1.52012 0.541993 -0.36021 52.4035 
1.52046 0.537164 -0.360069 52.4035 
1.52079 0.53233 -0.359927 53.4113 
1.52113 0.527491 -0.359785 53.4113 
1.52146 0.522648 -0.359643 52.9026 
1.5218 0.517801 -0.359501 51.9138 
1.52222 0.511686 -0.359321 52.6147 
1.52256 0.506846 -0.359179 52.6147 
1.52298 0.500765 -0.359001 53.3301 
1.52332 0.495933 -0.358859 53.8428 
1.52365 0.491095 -0.358717 52.8269 
1.52407 0.485065 -0.35854 53.0402 
1.5244 0.480234 -0.358398 53.0402 
1.52474 0.475401 -0.358257 52.5445 
1.52507 0.470564 -0.358115 52.058 
1.52549 0.464592 -0.357939 52.2684 
1.52584 0.459494 -0.35779 51.3181 
1.52618 0.454662 -0.357648 52.7569 
1.52653 0.449556 -0.357498 53.7618 
1.52686 0.444716 -0.357356 52.7569 
1.5272 0.439873 -0.357214 55.891 
1.52761 0.433986 -0.357041 55.0274 
1.52794 0.429152 -0.3569 57.2508 
1.52828 0.424313 -0.356758 57.835 
1.52854 0.420468 -0.356645 57.0201 
1.52895 0.414628 -0.356473 57.2508 
1.5293 0.409512 -0.356323 56.6783 
1.52964 0.404661 -0.356181 56.6783 
1.52998 0.399808 -0.356039 56.6783 
1.53031 0.394951 -0.355896 56.1171 
1.53065 0.390092 -0.355754 56.6783 
1.53099 0.385231 -0.355611 56.1171 
1.53132 0.380367 -0.355468 57.2508 
1.53166 0.375498 -0.355325 56.1171 
1.53202 0.370358 -0.355174 56.6783 
1.53235 0.365485 -0.355032 55.0274 
1.53264 0.361425 -0.354912 53.7618 
1.53314 0.354135 -0.354698 51.4761 
1.53403 0.341358 -0.354324 26.8855 
1.53438 0.336297 -0.354175 21.3503 
1.53466 0.332238 -0.354056 19.2791 
1.53489 0.328869 -0.353957 18.3879 
1.53523 0.324023 -0.353815 21.7312 
1.53568 0.317522 -0.353624 24.9299 
1.53611 0.311348 -0.353443 39.3981 
1.53639 0.307216 -0.353322 52.7934 
1.53673 0.302408 -0.353181 55.3074 
1.53701 0.298228 -0.353058 58.4216 
1.53735 0.293398 -0.352916 60.8815 
1.53766 0.2889 -0.352784 58.7788 
1.538 0.284053 -0.352642 57.0329 
1.53837 0.278634 -0.352483 55.6129 
1.53871 0.273799 -0.352341 55.0832 
1.53904 0.268962 -0.352199 54.5636 
1.53941 0.263599 -0.352042 53.771 
1.53977 0.258506 -0.351893 53.771 
1.5401 0.253679 -0.351751 53.2777 
1.54044 0.248851 -0.351609 54.2736 
1.54077 0.244022 -0.351468 53.771 
1.54112 0.238922 -0.351318 53.2777 
1.54146 0.234091 -0.351176 53.771 
1.54181 0.228988 -0.351027 54.7856 
1.54213 0.224422 -0.350893 54.2736 
1.54248 0.219318 -0.350743 54.2736 
1.54282 0.21448 -0.350601 54.2736 
1.54315 0.209642 -0.350459 53.771 
1.54351 0.204464 -0.350307 55.0087 
1.54384 0.199695 -0.350167 53.771 
1.5442 0.194545 -0.350016 54.4946 
1.54453 0.189718 -0.349874 55.0087 
1.54487 0.184891 -0.349733 55.0087 
1.54522 0.179795 -0.349583 54.4946 
1.54556 0.174967 -0.349441 53.99 
1.54589 0.170136 -0.3493 54.4946 
1.54623 0.165306 -0.349158 54.4946 
1.54656 0.160475 -0.349016 55.5326 
1.54691 0.155459 -0.348869 54.7167 
1.54725 0.150543 -0.348725 53.99 
1.54758 0.145711 -0.348583 53.99 
1.54792 0.140878 -0.348441 53.99 
1.54825 0.136046 -0.3483 54.4946 
1.54859 0.131213 -0.348158 55.0087 
1.54892 0.12638 -0.348016 53.99 
1.54926 0.121545 -0.347874 53.99 
1.5496 0.116649 -0.34773 54.7167 
1.54993 0.111877 -0.34759 54.4946 
1.55028 0.106774 -0.347441 55.0087 
1.55062 0.101926 -0.347298 54.2101 
1.55095 0.0971062 -0.347157 54.7167 
1.55128 0.0922879 -0.347016 54.2101 
1.55162 0.0874697 -0.346874 54.7167 
1.55195 0.0826517 -0.346733 54.7167 
1.55229 0.0777725 -0.34659 54.4946 
1.55264 0.0726718 -0.34644 53.99 
1.55298 0.0678387 -0.346298 55.0087 
1.55331 0.0630068 -0.346156 54.4946 
1.55363 0.0584433 -0.346023 54.4946 
1.55395 0.0537488 -0.345885 55.2329 
1.55429 0.0489333 -0.345744 54.7167 
1.55463 0.043951 -0.345597 53.99 
1.55495 0.0393896 -0.345464 53.99 
1.55528 0.0345609 -0.345322 53.4947 
1.55562 0.0297329 -0.34518 53.99 
1.55595 0.0249057 -0.345039 53.99 
1.55629 0.0200785 -0.344897 53.4947 
1.55664 0.0149845 -0.344747 55.0087 
1.55698 0.01016 -0.344606 55.0087 
1.55729 0.00560459 -0.344472 53.99 
1.55761 0.00104937 -0.344339 54.4946 
1.55794 -0.00382185 -0.344196 53.771 
1.5583 -0.00892657 -0.344046 54.2736 
1.55863 -0.0137614 -0.343904 54.7856 
1.55897 -0.018595 -0.343762 54.2736 
1.5593 -0.0234274 -0.34362 54.2736 
1.55962 -0.0279901 -0.343487 54.7856 
1.55995 -0.0328199 -0.343345 54.7856 
1.56032 -0.0380722 -0.343191 54.0536 
1.56065 -0.0429145 -0.343049 53.5531 
1.56099 -0.0477551 -0.342907 53.5531 
1.56134 -0.0528632 -0.342757 54.0536 
1.56168 -0.0577007 -0.342615 54.5636 
1.56201 -0.0625365 -0.342473 54.5636 
1.56235 -0.0673708 -0.342331 54.5636 
1.56268 -0.0722032 -0.342189 53.5531 
1.51016 0.653392 -0.309772 51.3564 
1.5105 0.64847 -0.309654 51.8649 
1.51096 0.641941 -0.309497 51.5603 
1.51143 0.635163 -0.309335 52.2778 
1.51177 0.630255 -0.309217 52.2778 
1.51211 0.625341 -0.309099 52.2778 
1.51256 0.618877 -0.308944 51.9712 
1.51301 0.61244 -0.308789 52.1782 
1.51335 0.607541 -0.308671 52.1782 
1.51379 0.601135 -0.308518 51.8776 
1.51424 0.594756 -0.308364 52.0847 
1.51468 0.5884 -0.308212 52.2928 
1.51502 0.583525 -0.308095 52.8054 
1.51546 0.577204 -0.307943 51.9971 
1.51579 0.572335 -0.307826 54.0769 
1.51625 0.565778 -0.307669 54.8418 
1.51659 0.560915 -0.307552 55.4014 
1.51702 0.554664 -0.307402 55.6234 
1.51736 0.549807 -0.307285 55.6234 
1.51772 0.544674 -0.307162 55.6234 
1.51806 0.539806 -0.307045 56.1969 
1.51839 0.534935 -0.306928 55.6234 
1.51873 0.530061 -0.306811 55.6234 
1.51907 0.525182 -0.306694 56.1969 
1.5195 0.51902 -0.306546 56.4223 
1.51984 0.514146 -0.306429 58.223 
1.52018 0.50927 -0.306312 59.4887 
1.52052 0.504389 -0.306195 58.8491 
1.52086 0.499504 -0.306078 58.8491 
1.5212 0.494615 -0.30596 57.01 
1.52154 0.489723 -0.305843 56.4223 
1.52196 0.483654 -0.305697 56.6488 
1.5223 0.478769 -0.30558 56.6488 
1.52272 0.472737 -0.305435 56.2961 
1.52306 0.46786 -0.305318 55.7275 
1.52349 0.461596 -0.305167 57.1053 
1.52383 0.456726 -0.305051 55.9517 
1.52419 0.451582 -0.304927 56.5226 
1.52453 0.446705 -0.30481 58.3076 
1.52487 0.441825 -0.304693 56.5226 
1.52521 0.436942 -0.304576 59.5615 
1.52555 0.432055 -0.304458 59.5615 
1.52589 0.427166 -0.304341 58.9278 
1.52629 0.421282 -0.3042 59.1652 
1.5265 0.418353 -0.304129 58.6917 
1.52693 0.412206 -0.303982 56.5226 
1.5274 0.405414 -0.303819 52.1864 
1.5282 0.393832 -0.303541 24.2634 
1.52857 0.38855 -0.303414 16.2265 
1.52891 0.383618 -0.303295 14.5185 
1.52932 0.377829 -0.303156 14.425 
1.5295 0.375149 -0.303092 14.1056 
1.52996 0.368533 -0.302933 14.3672 
1.53031 0.36359 -0.302814 15.1567 
1.53065 0.358645 -0.302696 14.3672 
1.53099 0.353698 -0.302577 14.8307 
1.53134 0.348749 -0.302458 14.6729 
1.5317 0.343521 -0.302333 15.8535 
1.53205 0.338566 -0.302214 17.4589 
1.53244 0.332893 -0.302077 21.6376 
1.53283 0.327249 -0.301942 17.1652 
1.53324 0.321359 -0.301801 43.6245 
1.53368 0.315102 -0.30165 55.7338 
1.53406 0.309559 -0.301517 59.4934 
1.53436 0.305321 -0.301416 61.8584 
1.5347 0.300428 -0.301298 64.7025 
1.53504 0.295533 -0.30118 69.4953 
1.5354 0.290363 -0.301056 65.4549 
1.53574 0.285464 -0.300939 61.1861 
1.53608 0.280563 -0.300821 59.2539 
1.53646 0.275114 -0.30069 58.2668 
1.5368 0.270226 -0.300573 56.5188 
1.53714 0.265335 -0.300455 57.6722 
1.53753 0.259672 -0.30032 56.1856 
1.53787 0.254794 -0.300202 56.7475 
1.53821 0.249913 -0.300085 56.7475 
1.53852 0.245485 -0.299979 56.5188 
1.53888 0.240316 -0.299855 55.9592 
1.53925 0.234994 -0.299727 58.5025 
1.5396 0.229838 -0.299603 56.7475 
1.53992 0.225222 -0.299492 56.1856 
1.54028 0.220063 -0.299369 57.3207 
1.54062 0.215175 -0.299251 56.7475 
1.54096 0.210286 -0.299134 56.1856 
1.5413 0.205394 -0.299016 56.1856 
1.54166 0.200231 -0.298892 57.3207 
1.542 0.195339 -0.298775 57.3207 
1.54236 0.190161 -0.298651 57.5529 
1.5427 0.185283 -0.298533 56.9773 
1.54306 0.180131 -0.29841 56.9773 
1.5434 0.175251 -0.298293 57.5529 
1.54374 0.17037 -0.298175 56.9773 
1.54408 0.165488 -0.298058 56.4132 
1.54442 0.160606 -0.297941 58.1401 
1.54477 0.155549 -0.29782 56.0866 
1.54513 0.15041 -0.297696 56.0866 
1.54546 0.145541 -0.297579 56.6419 
1.5458 0.140673 -0.297462 57.2083 
1.54614 0.135803 -0.297346 56.6419 
1.54648 0.130934 -0.297229 56.0866 
1.54681 0.126145 -0.297114 56.4132 
1.54715 0.12126 -0.296996 56.9773 
1.54749 0.116374 -0.296879 57.5529 
1.54783 0.111489 -0.296762 56.9773 
1.54819 0.106331 -0.296638 57.5529 
1.54853 0.101443 -0.296521 56.0866 
1.54887 0.0965731 -0.296404 57.2083 
1.54921 0.0917028 -0.296287 56.6419 
1.54954 0.0868326 -0.29617 57.2083 
1.54988 0.0819634 -0.296053 57.2083 
1.55022 0.0770937 -0.295936 56.6419 
1.55059 0.0718642 -0.29581 55.8601 
1.55092 0.0669807 -0.295693 56.9773 
1.55127 0.0619762 -0.295573 56.7475 
1.55159 0.0574848 -0.295465 55.8601 
1.55192 0.0526025 -0.295348 58.1401 
1.55226 0.0477193 -0.295231 56.4132 
1.5526 0.0428382 -0.295114 56.9773 
1.55292 0.0382284 -0.295003 56.9773 
1.55326 0.0333477 -0.294886 56.4132 
1.5536 0.0284678 -0.294769 56.9773 
1.55394 0.0235894 -0.294651 56.9773 
1.5543 0.0184549 -0.294528 57.3207 
1.55466 0.0132908 -0.294404 59.1119 
1.55498 0.00868669 -0.294294 57.5529 
1.5553 0.0040831 -0.294183 57.5529 
1.55562 -0.000520825 -0.294073 56.9773 
1.55596 -0.0054554 -0.293954 56.1856 
1.55632 -0.0106142 -0.29383 55.6348 
1.55666 -0.0155002 -0.293713 57.3207 
1.557 -0.0203856 -0.293596 56.1856 
1.55734 -0.0252691 -0.293478 56.7475 
1.55766 -0.0298801 -0.293368 56.7475 
1.558 -0.0347617 -0.29325 56.7475 
1.55834 -0.0396412 -0.293133 57.3207 
1.55868 -0.0445201 -0.293016 56.1856 
1.55902 -0.0493965 -0.292899 56.1856 
1.55937 -0.0545425 -0.292776 55.6348 
1.55971 -0.0594159 -0.292659 56.7475 
1.56005 -0.0642883 -0.292542 56.7475 
1.50779 0.654567 -0.255061 46.4531 
1.50824 0.648006 -0.254907 45.0432 
1.50859 0.643079 -0.254791 45.8266 
1.50895 0.637872 -0.254668 46.2286 
1.5094 0.631356 -0.254514 46.8231 
1.50985 0.624864 -0.254361 46.192 
1.5103 0.618396 -0.254209 43.01 
1.51075 0.611953 -0.254057 46.1597 
1.51109 0.607053 -0.253941 47.8082 
1.51154 0.600644 -0.25379 45.9479 
1.51188 0.595749 -0.253675 43.354 
1.51232 0.589374 -0.253524 47.3455 
1.51266 0.584485 -0.253409 46.5292 
1.5131 0.578145 -0.25326 47.9556 
1.51344 0.573262 -0.253144 45.1582 
1.5138 0.568101 -0.253023 47.9556 
1.51424 0.561807 -0.252874 49.0152 
1.51467 0.555539 -0.252727 48.7724 
1.51501 0.550666 -0.252612 48.7724 
1.51537 0.545517 -0.25249 48.3407 
1.5158 0.539296 -0.252344 48.109 
1.51614 0.534424 -0.252229 48.9681 
1.51648 0.52955 -0.252114 48.9681 
1.51682 0.52467 -0.251999 48.9681 
1.51716 0.519787 -0.251884 49.8584 
1.51759 0.513633 -0.251739 50.0587 
1.51793 0.508757 -0.251624 53.4608 
1.51827 0.503875 -0.251509 53.9849 
1.51861 0.498991 -0.251393 53.4608 
1.51895 0.494103 -0.251278 52.4425 
1.51929 0.48921 -0.251163 51.4622 
1.51971 0.483139 -0.25102 52.6533 
1.52005 0.478255 -0.250905 52.1566 
1.52047 0.472222 -0.250762 51.3968 
1.52073 0.468474 -0.250674 51.1907 
1.52124 0.461079 -0.2505 48.4628 
1.5215 0.457308 -0.250411 37.5058 
1.52235 0.445122 -0.250123 20.5724 
1.5224 0.444467 -0.250108 17.2077 
1.52281 0.438502 -0.249967 15.5298 
1.5228 0.438695 -0.249972 14.4122 
1.52308 0.434707 -0.249878 14.0557 
1.52342 0.429694 -0.24976 14.6668 
1.52377 0.424677 -0.249641 13.7689 
1.52408 0.420338 -0.249539 13.1762 
1.52443 0.4153 -0.24942 13.1762 
1.52478 0.410258 -0.249301 12.679 
1.52513 0.405214 -0.249182 12.7998 
1.52548 0.400166 -0.249063 13.0483 
1.52583 0.395115 -0.248944 13.8554 
1.52618 0.390063 -0.248825 14.2976 
1.52653 0.385007 -0.248706 14.2976 
1.52696 0.378829 -0.24856 13.7689 
1.52731 0.373783 -0.248441 13.1005 
1.52766 0.368734 -0.248322 14.0557 
1.52802 0.363682 -0.248203 14.5091 
1.52842 0.357851 -0.248066 14.1119 
1.52867 0.354334 -0.247983 17.6839 
1.52914 0.347487 -0.247821 16.1279 
1.52959 0.34098 -0.247668 16.654 
1.53009 0.333817 -0.247499 21.2638 
1.53053 0.327445 -0.247349 34.8326 
1.53104 0.320174 -0.247177 30.0053 
1.53143 0.314604 -0.247046 48.4086 
1.53177 0.309716 -0.246931 53.4321 
1.53211 0.304825 -0.246816 57.2102 
1.53245 0.299932 -0.2467 61.5631 
1.53279 0.295037 -0.246585 63.6383 
1.53315 0.28987 -0.246463 59.619 
1.53349 0.284971 -0.246347 56.0773 
1.53383 0.280071 -0.246232 52.9328 
1.53417 0.275169 -0.246116 50.5697 
1.53451 0.270266 -0.246001 49.6825 
1.53489 0.264848 -0.245873 50.3251 
1.53525 0.259684 -0.245751 49.4499 
1.53559 0.254793 -0.245636 50.3251 
1.53593 0.249898 -0.245521 50.3251 
1.53627 0.245003 -0.245405 49.4499 
1.53663 0.239834 -0.245283 50.7744 
1.537 0.234516 -0.245158 49.6503 
1.53736 0.22936 -0.245036 50.5291 
1.53768 0.224747 -0.244928 50.9802 
1.53803 0.219589 -0.244806 50.0858 
1.53837 0.214702 -0.244691 50.5291 
1.53871 0.209812 -0.244575 50.5291 
1.53908 0.204596 -0.244452 51.187 
1.53944 0.19945 -0.244331 50.734 
1.53977 0.194575 -0.244216 50.734 
1.54011 0.189697 -0.244101 50.734 
1.54045 0.184819 -0.243986 50.289 
1.54079 0.179918 -0.243871 50.9802 
1.54113 0.175022 -0.243755 49.6503 
1.54147 0.170127 -0.24364 49.6503 
1.54183 0.16503 -0.24352 49.8517 
1.54217 0.160149 -0.243405 49.8517 
1.54251 0.155266 -0.243289 49.8517 
1.54287 0.150113 -0.243168 52.1177 
1.54321 0.14523 -0.243053 50.734 
1.54354 0.140348 -0.242938 50.289 
1.54388 0.135464 -0.242823 51.6482 
1.54422 0.130581 -0.242707 50.289 
1.54456 0.125697 -0.242592 50.734 
1.54491 0.120753 -0.242476 50.4932 
1.54524 0.115929 -0.242362 49.8517 
1.54558 0.111044 -0.242247 50.289 
1.54594 0.105889 -0.242125 50.734 
1.54628 0.101004 -0.24201 50.289 
1.54662 0.0961208 -0.241895 50.734 
1.54696 0.0912365 -0.24178 50.289 
1.5473 0.0864012 -0.241666 50.4932 
1.54764 0.0814684 -0.241549 50.734 
1.54798 0.0765854 -0.241434 50.734 
1.54834 0.0714304 -0.241313 50.734 
1.54868 0.0665482 -0.241198 50.289 
1.54902 0.0616662 -0.241083 50.289 
1.54934 0.0570549 -0.240974 51.187 
1.54968 0.0521739 -0.240859 51.187 
1.55002 0.0472927 -0.240744 51.6482 
1.55035 0.042412 -0.240629 50.734 
1.55068 0.0378035 -0.24052 50.734 
1.55101 0.0329249 -0.240405 50.734 
1.55135 0.0280463 -0.24029 50.734 
1.55169 0.0231686 -0.240175 51.187 
1.55203 0.0182923 -0.24006 50.289 
1.55239 0.0131458 -0.239939 51.187 
1.55273 0.00827071 -0.239824 51.187 
1.55305 0.00366753 -0.239715 50.734 
1.55337 -0.000934154 -0.239607 50.734 
1.55369 -0.00553587 -0.239498 50.289 
1.55405 -0.010677 -0.239377 50.289 
1.55438 -0.0155464 -0.239262 49.8517 
1.55472 -0.0204153 -0.239147 51.187 
1.55506 -0.0252822 -0.239033 49.8517 
1.55541 -0.0302939 -0.238914 50.0858 
1.55575 -0.0351743 -0.238799 50.0858 
1.55609 -0.0400526 -0.238684 50.5291 
1.55643 -0.0449294 -0.238569 50.0858 
1.55677 -0.0498054 -0.238454 50.5291 
1.55712 -0.05495 -0.238333 49.6503 
1.55746 -0.0598221 -0.238218 50.0858 
1.5578 -0.0646932 -0.238103 50.0858 
1.50597 0.643707 -0.193263 56.1222 
1.50631 0.638812 -0.193193 55.5773 
1.50679 0.632051 -0.193096 56.35 
1.50724 0.625586 -0.193004 56.0296 
1.50758 0.620706 -0.192934 56.0296 
1.50803 0.614276 -0.192841 55.7165 
1.50848 0.60787 -0.19275 55.4105 
1.50892 0.601489 -0.192658 55.6363 
1.50937 0.595132 -0.192567 56.4003 
1.50981 0.5888 -0.192476 55.0428 
1.51015 0.583964 -0.192407 56.6305 
1.51059 0.577668 -0.192317 57.414 
1.51093 0.572836 -0.192248 56.3204 
1.51126 0.568001 -0.192178 57.414 
1.51172 0.561482 -0.192085 58.7903 
1.51206 0.556652 -0.192016 59.3782 
1.5124 0.551817 -0.191946 59.978 
1.51273 0.546978 -0.191877 58.7903 
1.51319 0.540517 -0.191784 59.6213 
1.51352 0.535685 -0.191715 59.031 
1.51386 0.530847 -0.191646 58.4522 
1.5142 0.526007 -0.191576 58.4522 
1.51463 0.519872 -0.191489 60.4702 
1.51497 0.515037 -0.191419 59.8655 
1.51539 0.508941 -0.191332 60.111 
1.51573 0.504113 -0.191263 57.7991 
1.51616 0.498053 -0.191176 61.5895 
1.51641 0.494447 -0.191124 62.6156 
1.51675 0.489608 -0.191055 63.9479 
1.51708 0.484765 -0.190985 61.9701 
1.5175 0.47875 -0.190899 62.8727 
1.51776 0.475069 -0.190847 63.2748 
1.51818 0.469077 -0.190761 63.5345 
1.51852 0.464235 -0.190691 62.8727 
1.51888 0.459121 -0.190618 62.2245 
1.51922 0.454271 -0.190548 62.8727 
1.51965 0.448073 -0.19046 60.0056 
1.51999 0.443231 -0.19039 61.8426 
1.52033 0.438387 -0.190321 61.8426 
1.52067 0.43354 -0.190251 62.4801 
1.52101 0.428689 -0.190182 63.1309 
1.52134 0.423834 -0.190112 64.4742 
1.52175 0.417994 -0.190029 64.7393 
1.52209 0.413149 -0.189959 62.0968 
1.52245 0.408031 -0.189886 62.0968 
1.52279 0.40318 -0.189816 60.8549 
1.52319 0.397403 -0.189733 60.5003 
1.52353 0.392562 -0.189664 61.7226 
1.52387 0.387717 -0.189595 61.7226 
1.52427 0.381994 -0.189513 63.2547 
1.52461 0.377159 -0.189443 63.9136 
1.52495 0.372321 -0.189374 64.5864 
1.5253 0.367213 -0.189301 65.2735 
1.52559 0.363185 -0.189243 67.1487 
1.52593 0.358325 -0.189173 65.7047 
1.52621 0.354246 -0.189115 65.4354 
1.52655 0.349365 -0.189045 66.8735 
1.52684 0.345235 -0.188986 66.5997 
1.52725 0.339325 -0.188901 66.1466 
1.5276 0.334438 -0.188831 66.1466 
1.52799 0.328842 -0.188751 66.4189 
1.52833 0.323965 -0.188681 65.7047 
1.52869 0.318815 -0.188607 66.4189 
1.52908 0.313274 -0.188528 64.5864 
1.52942 0.308407 -0.188458 63.9136 
1.52976 0.303537 -0.188388 63.9136 
1.5301 0.298666 -0.188318 66.6925 
1.53048 0.293195 -0.18824 65.5426 
1.53084 0.288065 -0.188167 64.1771 
1.53118 0.283203 -0.188097 63.5155 
1.53148 0.27889 -0.188035 65.9753 
1.53186 0.273475 -0.187957 66.9674 
1.53216 0.269127 -0.187895 67.4253 
1.5325 0.264243 -0.187825 66.6925 
1.5329 0.258598 -0.187744 66.9674 
1.53324 0.253727 -0.187674 67.7033 
1.53358 0.248854 -0.187605 68.4556 
1.53392 0.24398 -0.187535 69.2247 
1.53425 0.239258 -0.187467 68.9405 
1.53459 0.234366 -0.187397 67.4253 
1.53495 0.2292 -0.187323 68.1745 
1.5353 0.224199 -0.187251 68.4556 
1.53566 0.219047 -0.187177 69.2247 
1.53603 0.213819 -0.187102 65.813 
1.53637 0.208951 -0.187033 66.5207 
1.53671 0.204082 -0.186963 65.813 
1.53709 0.198644 -0.186885 65.3892 
1.53741 0.194072 -0.18682 65.1203 
1.53777 0.188934 -0.186746 64.7081 
1.53811 0.184078 -0.186676 64.7081 
1.53847 0.178951 -0.186603 64.041 
1.53881 0.174093 -0.186533 65.3892 
1.53916 0.169029 -0.186461 65.6595 
1.53949 0.164376 -0.186394 64.041 
1.53983 0.159516 -0.186324 63.3875 
1.54017 0.154656 -0.186255 64.7081 
1.54053 0.149525 -0.186181 64.041 
1.54087 0.144663 -0.186111 65.3892 
1.54121 0.139802 -0.186042 64.7081 
1.54154 0.13494 -0.185972 66.0849 
1.54188 0.130079 -0.185902 66.0849 
1.54223 0.125153 -0.185832 64.9756 
1.54257 0.120305 -0.185762 63.6496 
1.54291 0.115459 -0.185693 61.1535 
1.54325 0.110611 -0.185623 56.706 
1.5436 0.105494 -0.18555 48.9333 
1.54394 0.100648 -0.185481 41.0372 
1.54428 0.095801 -0.185411 33.9003 
1.54462 0.0909545 -0.185342 51.9805 
1.54496 0.0861075 -0.185272 58.8458 
1.5453 0.0811845 -0.185202 62.1198 
1.54564 0.0764146 -0.185133 63.0066 
1.54599 0.0713002 -0.18506 61.759 
1.54633 0.0664543 -0.184991 61.759 
1.54667 0.0616094 -0.184921 61.759 
1.54699 0.057033 -0.184856 60.5598 
1.54733 0.0521892 -0.184786 59.9775 
1.54767 0.0473458 -0.184717 63.0066 
1.54801 0.0425031 -0.184647 59.9775 
1.54833 0.0379295 -0.184582 61.759 
1.54867 0.0330881 -0.184512 62.3766 
1.54901 0.0282473 -0.184443 60.5598 
1.54933 0.0236688 -0.184377 62.6346 
1.54968 0.0185668 -0.184304 60.5598 
1.55004 0.0134594 -0.184231 62.3766 
1.55038 0.00862217 -0.184162 61.759 
1.5507 0.0040549 -0.184096 61.1535 
1.55104 -0.000851601 -0.184026 62.7472 
1.55134 -0.00507823 -0.183965 63.0066 
1.55169 -0.0101803 -0.183892 60.5598 
1.55206 -0.0153981 -0.183818 59.7305 
1.5524 -0.0202446 -0.183748 60.3105 
1.55271 -0.0246733 -0.183685 61.1535 
1.55302 -0.0292336 -0.183619 61.759 
1.55339 -0.0345078 -0.183544 60.3105 
1.55373 -0.039349 -0.183474 60.3105 
1.55407 -0.0441889 -0.183405 62.7472 
1.55441 -0.0490271 -0.183336 60.3105 
1.55477 -0.0541326 -0.183262 61.5047 
1.5551 -0.0589677 -0.183193 60.9017 
1.55544 -0.0638011 -0.183124 60.9017 
1.50364 0.643551 -0.137232 41.5872 
1.50411 0.636777 -0.13715 42.8249 
1.50446 0.631887 -0.137091 41.7407 
1.50491 0.625418 -0.137013 42.9832 
1.50536 0.618974 -0.136935 42.5893 
1.5057 0.614099 -0.136876 42.0502 
1.50615 0.607688 -0.136798 42.2063 
1.5066 0.601304 -0.136721 41.8336 
1.50704 0.594943 -0.136644 42.5209 
1.50738 0.590094 -0.136585 41.9894 
1.50782 0.583768 -0.136508 42.146 
1.50827 0.577469 -0.136432 42.3035 
1.5086 0.572633 -0.136374 42.839 
1.50896 0.567526 -0.136312 42.839 
1.5094 0.561272 -0.136236 42.9994 
1.50984 0.555045 -0.136161 43.714 
1.51017 0.550222 -0.136102 45.4626 
1.51063 0.543763 -0.136024 44.4481 
1.51106 0.537597 -0.13595 44.0434 
1.51139 0.532791 -0.135891 44.0434 
1.51173 0.527983 -0.135833 44.6154 
1.51216 0.521864 -0.135759 43.6499 
1.5124 0.518351 -0.135717 41.3902 
1.51274 0.513527 -0.135658 40.8975 
1.51317 0.507443 -0.135585 40.5687 
1.51351 0.502629 -0.135526 41.0517 
1.51384 0.49781 -0.135468 41.5462 
1.51418 0.492987 -0.13541 44.2095 
1.51452 0.488161 -0.135351 46.5992 
1.51486 0.483331 -0.135293 46.5992 
1.51528 0.477329 -0.13522 47.4159 
1.51561 0.472506 -0.135162 45.5442 
1.51603 0.466542 -0.13509 45.7166 
1.51639 0.46146 -0.135028 45.7166 
1.51673 0.456644 -0.13497 45.1228 
1.51708 0.451554 -0.134908 45.7166 
1.51742 0.446729 -0.13485 45.1228 
1.51776 0.4419 -0.134791 45.1228 
1.5181 0.437068 -0.134733 46.3261 
1.51851 0.431204 -0.134662 47.1301 
1.51884 0.426381 -0.134603 46.5017 
1.51918 0.421556 -0.134545 46.5017 
1.51952 0.416726 -0.134487 47.1301 
1.51988 0.411627 -0.134425 46.5017 
1.52022 0.40679 -0.134366 46.5017 
1.52055 0.401953 -0.134308 46.5017 
1.52089 0.397112 -0.134249 47.1301 
1.5213 0.391362 -0.13418 47.309 
1.52163 0.38653 -0.134121 47.309 
1.52197 0.381696 -0.134063 47.309 
1.52231 0.37686 -0.134004 46.6782 
1.52267 0.371751 -0.133942 46.6782 
1.52301 0.366908 -0.133884 46.6782 
1.5234 0.36125 -0.133815 46.8558 
1.52374 0.356418 -0.133757 47.4889 
1.52408 0.351584 -0.133698 46.8558 
1.52442 0.346748 -0.13364 47.4889 
1.52478 0.34164 -0.133578 46.8558 
1.52512 0.336799 -0.133519 47.4889 
1.52546 0.331954 -0.13346 46.8558 
1.52579 0.327108 -0.133402 47.4889 
1.5262 0.321302 -0.133332 47.6698 
1.52654 0.316468 -0.133273 47.0343 
1.52688 0.311631 -0.133214 48.3229 
1.52726 0.30615 -0.133148 47.8518 
1.5276 0.301324 -0.13309 47.2137 
1.52798 0.295888 -0.133024 46.7706 
1.52838 0.290211 -0.132955 46.9497 
1.52875 0.284834 -0.13289 45.9213 
1.52913 0.279485 -0.132825 41.329 
1.52983 0.269405 -0.132703 22.5591 
1.53013 0.265162 -0.132652 19.1257 
1.53052 0.259619 -0.132585 19.1993 
1.53082 0.255339 -0.132533 17.9781 
1.53119 0.250089 -0.13247 16.7105 
1.53149 0.245776 -0.132417 17.6256 
1.53187 0.24029 -0.132351 16.7105 
1.53221 0.235521 -0.132293 14.5543 
1.53256 0.230486 -0.132232 15.0394 
1.53289 0.225714 -0.132175 17.3532 
1.53323 0.220942 -0.132117 18.7993 
1.53356 0.216168 -0.132059 15.2943 
1.5339 0.211392 -0.132001 16.4066 
1.53423 0.206617 -0.131943 14.0995 
1.53458 0.201575 -0.131882 14.3233 
1.53492 0.196796 -0.131825 15.0394 
1.53525 0.192018 -0.131767 14.3233 
1.53559 0.187238 -0.131709 16.1137 
1.53594 0.182191 -0.131648 17.3532 
1.53628 0.177411 -0.13159 15.558 
1.53663 0.172413 -0.131529 15.0974 
1.53696 0.167646 -0.131472 15.892 
1.53729 0.162878 -0.131414 15.618 
1.53762 0.158279 -0.131358 14.0995 
1.53797 0.153229 -0.131297 14.0995 
1.5383 0.148445 -0.131239 13.4681 
1.53864 0.14366 -0.131181 13.4681 
1.53897 0.138875 -0.131123 12.5328 
1.53931 0.134088 -0.131066 13.6722 
1.53965 0.129228 -0.131007 13.7249 
1.53998 0.124517 -0.13095 15.558 
1.54031 0.119731 -0.130892 34.3758 
1.54065 0.114971 -0.130834 43.3208 
1.54098 0.110183 -0.130776 45.9213 
1.54134 0.105093 -0.130715 46.9497 
1.54168 0.10026 -0.130656 46.9497 
1.54202 0.0954271 -0.130598 48.2186 
1.54235 0.0905927 -0.130539 46.34 
1.54269 0.08576 -0.130481 46.34 
1.54303 0.0809275 -0.130422 45.1668 
1.54339 0.0758264 -0.13036 45.7458 
1.54373 0.0709945 -0.130302 46.34 
1.54407 0.0661629 -0.130243 46.34 
1.54439 0.0614763 -0.130187 45.9213 
1.54471 0.0569289 -0.130132 45.34 
1.54505 0.0521142 -0.130073 45.9213 
1.54539 0.0472992 -0.130015 45.9213 
1.54572 0.0424857 -0.129957 45.9213 
1.54604 0.0379405 -0.129902 46.5177 
1.54638 0.0331274 -0.129843 45.9213 
1.54673 0.0280637 -0.129782 44.6022 
1.54705 0.0235051 -0.129727 45.9213 
1.54743 0.0181436 -0.129662 45.7458 
1.54777 0.013319 -0.129604 45.1668 
1.5481 0.00849456 -0.129545 46.34 
1.54842 0.00394022 -0.12949 45.7458 
1.54874 -0.000613779 -0.129435 46.34 
1.54906 -0.00516677 -0.12938 45.1668 
1.54942 -0.0102544 -0.129318 45.7458 
1.54975 -0.015073 -0.12926 45.1668 
1.55012 -0.0202973 -0.129197 46.1632 
1.55046 -0.0251289 -0.129138 45.5714 
1.55078 -0.0296915 -0.129083 46.1632 
1.55111 -0.0345205 -0.129025 44.9945 
1.55149 -0.0398162 -0.128961 45.9874 
1.55179 -0.0441736 -0.128908 45.5714 
1.55218 -0.0497676 -0.12884 44.8232 
1.55252 -0.054606 -0.128782 45.9874 
1.55286 -0.059443 -0.128723 44.8232 
1.50133 0.644356 -0.0833361 41.2769 
1.50169 0.639172 -0.0832965 40.7544 
1.50215 0.632668 -0.0832468 41.4585 
1.50249 0.62776 -0.0832093 41.4585 
1.50284 0.622849 -0.0831718 41.9969 
1.50329 0.616387 -0.0831224 41.114 
1.50364 0.61148 -0.0830849 40.6001 
1.50419 0.60354 -0.0830243 41.4778 
1.50464 0.597153 -0.0829755 40.6325 
1.50509 0.590791 -0.0829269 41.8456 
1.50553 0.584455 -0.0828785 42.57 
1.50598 0.578144 -0.0828303 41.1753 
1.50632 0.573298 -0.0827933 42.2177 
1.50668 0.568177 -0.0827542 41.6899 
1.50702 0.563322 -0.0827171 42.2177 
1.50746 0.557067 -0.0826693 42.9489 
1.5078 0.552217 -0.0826323 43.5067 
1.50816 0.547093 -0.0825931 42.9489 
1.5085 0.542234 -0.082556 43.5067 
1.50893 0.53604 -0.0825087 43.7002 
1.50927 0.531187 -0.0824716 43.7002 
1.50971 0.525028 -0.0824246 44.4724 
1.51005 0.520183 -0.0823876 43.3321 
1.51039 0.515333 -0.0823505 43.3321 
1.51073 0.51048 -0.0823134 43.8949 
1.51116 0.504381 -0.0822668 44.0906 
1.5115 0.499534 -0.0822298 45.2663 
1.51184 0.494685 -0.0821928 43.5253 
1.51218 0.489831 -0.0821557 44.6707 
1.5126 0.483791 -0.0821096 44.2874 
1.51294 0.478946 -0.0820725 44.8702 
1.5132 0.475247 -0.0820443 44.0906 
1.51362 0.469243 -0.0819984 43.7196 
1.51398 0.464116 -0.0819593 44.2874 
1.5144 0.45815 -0.0819137 43.9151 
1.51476 0.453032 -0.0818746 43.9151 
1.51518 0.447107 -0.0818293 44.6844 
1.51552 0.442267 -0.0817924 44.6844 
1.51586 0.437422 -0.0817554 44.1116 
1.5162 0.432576 -0.0817183 44.1116 
1.51647 0.428737 -0.081689 44.4854 
1.51688 0.422872 -0.0816442 44.6844 
1.51722 0.418015 -0.0816071 44.1116 
1.51758 0.412885 -0.0815679 44.6844 
1.51792 0.408023 -0.0815308 44.1116 
1.51826 0.403157 -0.0814936 45.2724 
1.51867 0.39737 -0.0814494 44.3092 
1.51901 0.392514 -0.0814123 44.3092 
1.51941 0.386767 -0.0813684 44.5079 
1.51981 0.381048 -0.0813247 44.7078 
1.52015 0.376215 -0.0812878 44.7078 
1.52051 0.371109 -0.0812488 45.2884 
1.52085 0.36627 -0.0812118 45.2884 
1.52119 0.36143 -0.0811749 45.2884 
1.52147 0.35738 -0.0811439 45.0859 
1.52187 0.351738 -0.0811008 45.2884 
1.52216 0.347652 -0.0810696 45.0859 
1.52252 0.342516 -0.0810304 45.6792 
1.52286 0.337647 -0.0809932 44.5079 
1.52325 0.33206 -0.0809505 45.2884 
1.52359 0.327201 -0.0809134 45.2884 
1.52395 0.322071 -0.0808742 45.2884 
1.52434 0.316538 -0.0808319 47.3363 
1.52468 0.31169 -0.0807949 47.9847 
1.52502 0.306839 -0.0807579 49.3364 
1.52545 0.300741 -0.0807113 47.7635 
1.52579 0.295917 -0.0806744 47.7635 
1.52619 0.290232 -0.080631 47.3393 
1.52657 0.284845 -0.0805899 44.0306 
1.52716 0.276335 -0.0805248 13.3883 
1.5275 0.271502 -0.0804879 22.0906 
1.52788 0.266155 -0.0804471 20.173 
1.52827 0.26057 -0.0804044 19.383 
1.52864 0.255283 -0.080364 19.0564 
1.52898 0.250491 -0.0803274 17.5618 
1.52932 0.245697 -0.0802908 16.5861 
1.5297 0.240202 -0.0802488 18.7438 
1.53004 0.23542 -0.0802123 17.302 
1.53039 0.230373 -0.0801737 17.302 
1.53075 0.225205 -0.0801343 17.7212 
1.53111 0.220066 -0.080095 18.1576 
1.53145 0.215311 -0.0800587 18.9142 
1.53176 0.210895 -0.080025 17.3804 
1.53209 0.206122 -0.0799885 17.3804 
1.53245 0.201083 -0.07995 17.0525 
1.53278 0.196309 -0.0799135 16.4324 
1.5331 0.19181 -0.0798792 15.7843 
1.53343 0.187019 -0.0798426 17.6413 
1.53379 0.18196 -0.0798039 17.302 
1.53411 0.177394 -0.079769 16.8991 
1.53443 0.172797 -0.0797339 13.3078 
1.53476 0.168168 -0.0796986 34.4703 
1.5351 0.163325 -0.0796616 42.2672 
1.53543 0.158648 -0.0796259 47.1267 
1.53579 0.15352 -0.0795867 45.9026 
1.53613 0.148661 -0.0795496 46.5066 
1.53647 0.143802 -0.0795124 47.1267 
1.53681 0.138942 -0.0794753 48.4178 
1.53715 0.134082 -0.0794382 48.4178 
1.53749 0.129222 -0.0794011 48.4178 
1.53784 0.124306 -0.0793635 48.6362 
1.53818 0.119462 -0.0793265 49.3117 
1.53852 0.114617 -0.0792895 49.3117 
1.53886 0.10977 -0.0792525 49.3117 
1.53922 0.104657 -0.0792134 50.0063 
1.53956 0.0998109 -0.0791764 49.3117 
1.53989 0.0950062 -0.0791397 50.2321 
1.54024 0.0901215 -0.0791024 47.979 
1.54058 0.0852769 -0.0790654 46.1097 
1.54092 0.0804319 -0.0790284 46.1097 
1.54128 0.0752146 -0.0789885 45.9026 
1.54162 0.0703553 -0.0789514 45.9026 
1.54197 0.0654957 -0.0789143 45.3141 
1.54231 0.0606373 -0.0788772 45.3141 
1.54263 0.0560487 -0.0788421 45.3141 
1.54297 0.0511912 -0.078805 45.3141 
1.54331 0.0463336 -0.0787679 44.7405 
1.54365 0.0414764 -0.0787308 45.3141 
1.54397 0.0368908 -0.0786958 44.1813 
1.54431 0.0320358 -0.0786587 44.7405 
1.54466 0.02718 -0.0786216 45.9026 
1.545 0.0223265 -0.0785845 45.3141 
1.54536 0.017204 -0.0785454 45.3141 
1.5457 0.0123522 -0.0785083 44.7405 
1.54604 0.00750148 -0.0784713 44.7405 
1.54636 0.0029206 -0.0784363 45.3141 
1.54668 -0.00165954 -0.0784013 45.3141 
1.547 -0.00623816 -0.0783663 45.9026 
1.54736 -0.0113544 -0.0783272 45.3141 
1.5477 -0.0162 -0.0782902 45.9026 
1.54804 -0.0210446 -0.0782532 45.3141 
1.54841 -0.0263169 -0.0782129 45.1109 
1.54873 -0.0309045 -0.0781779 45.1109 
1.54904 -0.0353013 -0.0781443 45.9026 
1.54938 -0.0401412 -0.0781073 45.3141 
1.54969 -0.044488 -0.0780741 45.5185 
1.55008 -0.0500833 -0.0780314 45.3141 
1.49965 0.634574 -0.0267535 37.0549 
1.49999 0.629745 -0.0267456 37.0549 
1.50033 0.62491 -0.0267377 36.688 
1.5008 0.618231 -0.0267267 37.2017 
1.50125 0.611845 -0.0267163 37.3493 
1.5017 0.605484 -0.0267059 37.4977 
1.50204 0.600674 -0.026698 36.4055 
1.50238 0.595859 -0.0266901 37.1264 
1.50283 0.589543 -0.0266798 37.6467 
1.50316 0.584733 -0.0266719 38.027 
1.5035 0.579919 -0.026664 37.274 
1.50395 0.57365 -0.0266538 37.7966 
1.50439 0.567404 -0.0266436 37.9471 
1.50472 0.562607 -0.0266357 38.7216 
1.50506 0.557805 -0.0266278 38.3304 
1.50552 0.55134 -0.0266173 38.4833 
1.50595 0.545168 -0.0266072 42.5006 
1.50629 0.540381 -0.0265993 39.4336 
1.50663 0.535592 -0.0265915 39.4336 
1.50708 0.529201 -0.026581 39.1872 
1.50741 0.524418 -0.0265732 39.5912 
1.50775 0.519631 -0.0265654 40.0036 
1.50818 0.513555 -0.0265554 40.1636 
1.50852 0.508775 -0.0265476 40.1636 
1.50885 0.503991 -0.0265398 40.1636 
1.50919 0.499202 -0.0265319 39.3439 
1.50961 0.493186 -0.0265221 40.3244 
1.50995 0.488405 -0.0265143 40.7489 
1.51029 0.48362 -0.0265064 39.1025 
1.51063 0.478832 -0.0264986 39.1025 
1.51096 0.474041 -0.0264907 40.3244 
1.51138 0.468097 -0.026481 39.2592 
1.51172 0.463313 -0.0264732 40.9122 
1.51206 0.458527 -0.0264654 39.2592 
1.51247 0.452635 -0.0264557 39.0225 
1.51283 0.447589 -0.0264475 40.2294 
1.51316 0.442807 -0.0264396 40.6485 
1.51352 0.437756 -0.0264314 39.0225 
1.51386 0.432966 -0.0264235 40.2294 
1.51419 0.428174 -0.0264157 41.0764 
1.51453 0.423379 -0.0264078 39.8189 
1.51487 0.41858 -0.0264 39.4167 
1.51521 0.413777 -0.0263921 39.8189 
1.51561 0.40801 -0.0263827 39.9788 
1.51595 0.403218 -0.0263748 40.8117 
1.51631 0.398157 -0.0263666 39.575 
1.51665 0.393359 -0.0263587 39.9788 
1.51705 0.387659 -0.0263494 42.7574 
1.51739 0.382869 -0.0263415 40.5534 
1.51772 0.378078 -0.0263337 40.1396 
1.51806 0.373284 -0.0263258 40.1396 
1.5184 0.368488 -0.026318 39.7341 
1.51874 0.363689 -0.0263101 41.8476 
1.51915 0.357815 -0.0263005 40.7166 
1.51949 0.353026 -0.0262927 41.1407 
1.51983 0.348235 -0.0262848 39.894 
1.52022 0.342682 -0.0262758 41.7412 
1.52055 0.337902 -0.0262679 40.8806 
1.52089 0.333119 -0.0262601 40.8806 
1.52125 0.328069 -0.0262518 39.6542 
1.52158 0.323282 -0.026244 41.7412 
1.52187 0.319173 -0.0262373 41.5738 
1.52226 0.313702 -0.0262283 41.3064 
1.52262 0.308641 -0.02622 45.5795 
1.52295 0.303845 -0.0262122 47.2073 
1.52325 0.299667 -0.0262053 44.8808 
1.52367 0.293647 -0.0261955 44.2378 
1.52393 0.290036 -0.0261896 42.016 
1.52427 0.285217 -0.0261817 37.976 
1.52519 0.27207 -0.0261602 19.4527 
1.52549 0.267864 -0.0261533 17.6748 
1.52586 0.262608 -0.0261447 15.8053 
1.52616 0.258367 -0.0261378 14.3923 
1.52642 0.254572 -0.0261315 13.505 
1.52672 0.250445 -0.0261248 12.8747 
1.52696 0.246965 -0.0261191 11.9449 
1.52721 0.243389 -0.0261132 12.2505 
1.52753 0.238892 -0.0261059 12.6832 
1.52798 0.232498 -0.0260954 13.3639 
1.52838 0.22685 -0.0260862 15.1295 
1.52877 0.221264 -0.026077 20.2317 
1.52911 0.216441 -0.0260691 19.4383 
1.52947 0.211349 -0.0260608 36.38 
1.52981 0.206524 -0.0260529 43.576 
1.53015 0.201698 -0.026045 44.0602 
1.53049 0.196871 -0.0260371 45.5795 
1.53085 0.191775 -0.0260288 46.652 
1.53119 0.186946 -0.0260209 47.2073 
1.53153 0.182116 -0.026013 46.652 
1.53187 0.177286 -0.0260051 47.7761 
1.53223 0.172187 -0.0259967 48.9558 
1.53257 0.167355 -0.0259888 47.2073 
1.53291 0.162522 -0.0259809 47.7761 
1.53325 0.157689 -0.025973 46.652 
1.53359 0.152856 -0.0259651 47.2073 
1.53393 0.148022 -0.0259572 47.2073 
1.5343 0.142808 -0.0259486 47.3977 
1.53464 0.137989 -0.0259407 47.3977 
1.53498 0.133169 -0.0259328 47.3977 
1.53532 0.12835 -0.025925 47.3977 
1.53566 0.123531 -0.0259171 46.8401 
1.53599 0.118746 -0.0259092 47.2073 
1.53633 0.11391 -0.0259013 46.652 
1.53668 0.109074 -0.0258934 47.2073 
1.53703 0.103984 -0.0258851 48.5537 
1.53737 0.0991639 -0.0258772 49.7676 
1.53771 0.0943443 -0.0258693 50.3975 
1.53805 0.0895844 -0.0258615 48.1623 
1.53839 0.0847049 -0.0258535 45.7633 
1.53873 0.079978 -0.0258458 44.4164 
1.53906 0.0751749 -0.0258379 42.9836 
1.5394 0.0703713 -0.0258301 42.5263 
1.53974 0.0655688 -0.0258222 42.0787 
1.54008 0.0607668 -0.0258143 42.0787 
1.54042 0.0559659 -0.0258065 41.2111 
1.54075 0.0511648 -0.0257986 41.6404 
1.54107 0.0466305 -0.0257912 40.3785 
1.54141 0.0418307 -0.0257834 40.7906 
1.54175 0.0370305 -0.0257755 40.7906 
1.54209 0.0322319 -0.0257676 40.3785 
1.54243 0.0274348 -0.0257598 40.7906 
1.54276 0.0226378 -0.0257519 40.3785 
1.5431 0.0178415 -0.0257441 40.7906 
1.54342 0.0133562 -0.0257367 40.9553 
1.54378 0.00825104 -0.0257284 40.3785 
1.5441 0.00372413 -0.025721 40.7906 
1.54442 -0.000801802 -0.0257136 40.7906 
1.54473 -0.00532717 -0.0257062 40.3785 
1.54514 -0.0110378 -0.0256968 41.473 
1.54548 -0.0158419 -0.025689 41.0454 
1.5458 -0.0203786 -0.0256815 40.6266 
1.54613 -0.025181 -0.0256737 40.6266 
1.54647 -0.0299821 -0.0256658 41.9095 
1.54681 -0.0347818 -0.025658 40.2162 
1.54715 -0.0395795 -0.0256501 40.6266 
1.54749 -0.0443763 -0.0256423 41.0454 
1.54782 -0.0491717 -0.0256344 40.6266 
1.54816 -0.0539655 -0.0256266 41.0454 
1.49756 0.632269 0.027245 38.1679 
1.49803 0.625576 0.0272318 37.4883 
1.49837 0.620753 0.0272224 37.9096 
1.49882 0.614362 0.0272098 37.6578 
1.49916 0.609545 0.0272004 37.6578 
1.49961 0.60319 0.0271879 38.2531 
1.49995 0.598376 0.0271785 38.2531 
1.5004 0.592056 0.0271661 37.9992 
1.50084 0.58576 0.0271537 38.1712 
1.50128 0.57949 0.0271414 37.1071 
1.50173 0.573244 0.0271292 38.0945 
1.50206 0.568467 0.0271198 38.9506 
1.5024 0.563687 0.0271104 38.0945 
1.50286 0.557223 0.0270977 39.1271 
1.50319 0.552449 0.0270883 39.1271 
1.50353 0.547669 0.027079 39.5717 
1.50397 0.541518 0.0270669 40.2081 
1.50432 0.536479 0.027057 39.7512 
1.50475 0.530365 0.027045 39.9315 
1.50509 0.525599 0.0270357 39.4829 
1.50543 0.520829 0.0270263 39.4829 
1.50576 0.516054 0.0270169 40.3905 
1.5061 0.511276 0.0270076 40.3905 
1.50644 0.506494 0.0269982 39.4829 
1.50686 0.500461 0.0269863 39.6621 
1.5072 0.495685 0.026977 39.6621 
1.50754 0.490907 0.0269676 40.1128 
1.50788 0.486125 0.0269582 40.5739 
1.50821 0.481338 0.0269488 39.2214 
1.50855 0.476548 0.0269394 40.5739 
1.50889 0.471754 0.02693 39.6621 
1.50931 0.465817 0.0269184 40.295 
1.50965 0.461032 0.026909 40.295 
1.51 0.455976 0.0268991 40.295 
1.51042 0.450091 0.0268875 40.9433 
1.51078 0.445044 0.0268776 40.4781 
1.51111 0.440259 0.0268682 40.4781 
1.51145 0.435472 0.0268588 40.4781 
1.51179 0.430681 0.0268494 39.5785 
1.5122 0.424872 0.026838 41.1294 
1.51254 0.42009 0.0268286 39.7585 
1.51295 0.41432 0.0268173 39.9393 
1.51328 0.409548 0.026808 40.388 
1.51364 0.404507 0.0267981 39.9393 
1.51391 0.400667 0.0267905 39.7585 
1.51425 0.39587 0.0267811 39.3216 
1.51465 0.390162 0.0267699 39.9393 
1.51499 0.385375 0.0267605 40.388 
1.51533 0.380586 0.0267511 39.9393 
1.51573 0.374933 0.02674 40.121 
1.51606 0.370152 0.0267307 40.121 
1.51642 0.365104 0.0267208 39.6801 
1.51676 0.360321 0.0267114 40.5718 
1.5171 0.355532 0.026702 40.121 
1.51743 0.350743 0.0266926 40.5718 
1.51783 0.345184 0.0266817 41.2196 
1.51816 0.340403 0.0266723 40.7565 
1.51852 0.335356 0.0266624 40.7565 
1.51886 0.330573 0.026653 40.3036 
1.5192 0.325787 0.0266436 40.7565 
1.51953 0.320999 0.0266342 40.3036 
1.51989 0.315943 0.0266243 41.2196 
1.52018 0.311807 0.0266162 41.9871 
1.52052 0.306998 0.0266067 44.0352 
1.52086 0.302186 0.0265973 44.5789 
1.52125 0.296761 0.0265867 43.1825 
1.52163 0.291367 0.0265761 42.3703 
1.52198 0.286315 0.0265662 40.4872 
1.52236 0.280962 0.0265557 36.242 
1.52355 0.264053 0.0265225 18.0034 
1.52375 0.261355 0.0265172 34.6899 
1.5241 0.256325 0.0265073 41.3161 
1.5244 0.252027 0.0264989 41.596 
1.52474 0.247244 0.0264895 41.596 
1.52505 0.242897 0.026481 41.4073 
1.52541 0.237827 0.026471 41.8833 
1.52575 0.233024 0.0264616 41.8833 
1.52613 0.227564 0.0264509 42.0741 
1.52647 0.222774 0.0264415 43.5767 
1.52681 0.217983 0.0264321 43.0641 
1.52715 0.21319 0.0264227 43.0641 
1.52748 0.208397 0.0264133 43.0641 
1.52782 0.203602 0.0264039 43.0641 
1.52818 0.198541 0.0263939 43.5767 
1.5285 0.194024 0.0263851 44.4371 
1.52884 0.189211 0.0263756 45.5481 
1.5292 0.18415 0.0263657 46.3348 
1.52955 0.179085 0.0263558 46.3348 
1.52988 0.1745 0.0263468 46.1246 
1.53023 0.169485 0.0263369 46.3348 
1.53057 0.164684 0.0263275 46.3348 
1.53091 0.159883 0.0263181 46.9288 
1.53125 0.155082 0.0263087 46.3348 
1.53161 0.150013 0.0262987 46.3348 
1.53194 0.14533 0.0262895 46.1246 
1.53228 0.140511 0.0262801 46.716 
1.53262 0.135692 0.0262706 46.1246 
1.53296 0.130874 0.0262612 46.1246 
1.5333 0.126055 0.0262517 46.716 
1.53364 0.121235 0.0262423 46.716 
1.53398 0.116388 0.0262327 46.3348 
1.53432 0.111584 0.0262233 46.3348 
1.53466 0.10678 0.0262139 46.9288 
1.53502 0.101709 0.0262039 46.3348 
1.53535 0.0969421 0.0261946 46.546 
1.53569 0.0921539 0.0261852 45.3967 
1.53603 0.0873658 0.0261758 43.2604 
1.53636 0.0826619 0.0261666 42.4586 
1.53669 0.0779901 0.0261574 42.1676 
1.53705 0.0728533 0.0261473 41.0433 
1.53739 0.0680818 0.026138 41.0433 
1.53774 0.0631627 0.0261283 41.3161 
1.53806 0.0586435 0.0261194 40.857 
1.5384 0.0538571 0.02611 40.857 
1.53873 0.0490719 0.0261007 40.857 
1.53907 0.0442872 0.0260913 40.857 
1.53939 0.0397693 0.0260824 40.857 
1.53971 0.0352256 0.0260735 41.9761 
1.54007 0.0302034 0.0260636 40.408 
1.5404 0.0254222 0.0260543 40.408 
1.54074 0.0206404 0.0260449 42.2659 
1.5411 0.0155943 0.026035 41.3161 
1.54146 0.0104968 0.026025 41.1286 
1.54175 0.00630334 0.0260167 41.3161 
1.5421 0.00144249 0.0260072 41.596 
1.54242 -0.00308326 0.0259983 40.6716 
1.54273 -0.0076074 0.0259894 41.1286 
1.54311 -0.0129296 0.025979 41.1286 
1.54345 -0.0177183 0.0259696 40.6716 
1.54379 -0.022505 0.0259602 42.5633 
1.54411 -0.0270252 0.0259513 41.1286 
1.54441 -0.031353 0.0259429 41.3161 
1.54478 -0.0365928 0.0259326 40.6716 
1.54512 -0.0413749 0.0259232 41.1286 
1.54546 -0.0461555 0.0259138 40.2247 
1.54581 -0.0511994 0.0259039 40.6716 
1.49558 0.628264 0.0814328 48.2759 
1.49603 0.621841 0.0813944 48.9664 
1.49637 0.617005 0.0813654 48.4616 
1.49682 0.610616 0.0813272 48.1519 
1.49727 0.604251 0.081289 48.8358 
1.49762 0.599429 0.0812602 48.3375 
1.49806 0.593101 0.0812223 48.034 
1.49851 0.586796 0.0811846 49.7265 
1.49885 0.581989 0.0811558 49.2138 
1.49929 0.575721 0.0811182 49.4042 
1.49974 0.569477 0.0810809 49.0895 
1.50007 0.564687 0.0810522 49.0895 
1.50053 0.558214 0.0810134 49.2799 
1.50087 0.553429 0.0809848 49.7879 
1.50121 0.548641 0.0809561 50.8361 
1.50155 0.543849 0.0809274 50.8361 
1.50191 0.538785 0.0808971 51.9293 
1.50234 0.532647 0.0808604 52.1309 
1.50268 0.527857 0.0808317 52.1309 
1.50302 0.523061 0.080803 50.5018 
1.50345 0.516971 0.0807665 51.7768 
1.50379 0.512184 0.0807379 51.7768 
1.50413 0.507393 0.0807092 50.6981 
1.50447 0.502596 0.0806805 51.2318 
1.50481 0.497797 0.0806517 51.7768 
1.50515 0.492994 0.080623 51.2318 
1.50557 0.486986 0.080587 51.9783 
1.50591 0.48219 0.0805583 51.9783 
1.50634 0.47622 0.0805226 51.0936 
1.50667 0.471433 0.0804939 51.6315 
1.50693 0.467781 0.080472 51.9783 
1.50727 0.46297 0.0804432 50.8954 
1.50771 0.456781 0.0804062 51.0936 
1.50797 0.453072 0.080384 50.8954 
1.50841 0.446906 0.0803471 52.1807 
1.50875 0.442098 0.0803183 52.1807 
1.50917 0.436239 0.0802832 52.3842 
1.5095 0.431439 0.0802545 51.8328 
1.50984 0.426635 0.0802257 51.8328 
1.51026 0.420829 0.0801909 52.0352 
1.5106 0.416035 0.0801622 52.5887 
1.51093 0.411238 0.0801335 52.0352 
1.51129 0.40617 0.0801032 51.4931 
1.51163 0.401366 0.0800744 52.5887 
1.51197 0.39656 0.0800456 52.0352 
1.51231 0.391751 0.0800169 52.0352 
1.51265 0.386939 0.079988 52.0352 
1.51306 0.381247 0.079954 51.6944 
1.5134 0.376445 0.0799252 51.6944 
1.51374 0.371641 0.0798965 51.6944 
1.5141 0.366566 0.0798661 51.6944 
1.51444 0.361757 0.0798373 51.6944 
1.51478 0.356944 0.0798085 52.2385 
1.51517 0.351346 0.0797749 51.8966 
1.51551 0.346544 0.0797462 52.4429 
1.51591 0.340988 0.0797129 52.0999 
1.51626 0.33593 0.0796827 53.7806 
1.5166 0.331137 0.079654 52.0999 
1.51689 0.327047 0.0796295 51.8966 
1.51728 0.321543 0.0795965 52.0999 
1.51764 0.316477 0.0795662 52.6483 
1.51798 0.311675 0.0795375 53.2084 
1.51832 0.306871 0.0795087 52.0999 
1.51871 0.301439 0.0794762 50.212 
1.51904 0.296646 0.0794475 51.2368 
1.51938 0.291852 0.0794188 49.7149 
1.51974 0.28679 0.0793885 48.7495 
1.52008 0.281992 0.0793597 50.212 
1.52042 0.277192 0.079331 52.3042 
